%YAML:1.0
---
disp: !!opencv-matrix
   rows: 31
   cols: 538
   dt: s
   data: [ 1248, 1247, 1242, 1238, 1237, 1236, 1227, 1229, 1225, 1219, 1205, 1198, 1196, 1190, 1187, 1184, 1178, 1175, 1175, 1170, 1167, 1156, 1153, 1150, 1145, 1137, 1131, 1130, 1125, 1120, 1118, 1115, 1113, 1111, 1108, 1106, 1106, 1104, 1102, 1101, 1099, 1098, 1096, 1096, 1091, 1089, 1087, 1087, 1085, 1083, 1082, 1081, 1080, 1079, 1077, 1076, 1075, 1074, 1073, 1072, 1071, 1070, 1069, 1069, 1067, 1067, 1066, 1065, 1064, 1063, 1063, 1062, 1061, 1060, 1059, 1059, 1058, 1057, 1056, 1055, 1055, 1054, 1053, 1050, 1049, 1047, 1044, 1045, 1046, 1045, 1041, 1042, 1039, 1039, 1038, 1036, 1035, 1033, 1030, 1028, 1022, 1021, 1018, 1007, 1019, 1015, 996, 1001, 992, 997, 998, 985, 985, 978, 973, 972, 970, 953, 959, 951, 947, 944, 916, 920, 920, 919, 901, 885, 867, 862, 847, 841, 831, 810, 796, 773, 738, 747, 744, 714, 691, 690, 656, 653, 638, 634, 629, 597, 593, 597, 575, 568, 568, 560, 561, 550, 548, 541, 544, 543, 543, 540, 538, 538, 537, 535, 533, 531, 527, 528, 528, 527, 524, 526, 524, 524, 524, 522, 523, 522, 521, 521, 521, 521, 520, 520, 520, 519, 519, 518, 518, 518, 517, 519, 517, 517, 517, 516, 515, 516, 516, 517, 517, 517, 516, 517, 517, 517, 518, 517, 518, 518, 519, 519, 518, 518, 518, 519, 520, 521, 520, 520, 521, 521, 522, 522, 523, 525, 525, 524, 525, 526, 526, 526, 527, 530, 531, 530, 530, 530, 532, 532, 534, 535, 532, 533, 533, 536, 537, 537, 537, 539, 541, 541, 540, 543, 543, 546, 545, 546, 546, 547, 547, 553, 547, 561, 555, 552, 552, 555, 559, 563, 562, 566, 562, 565, 569, 572, 565, 570, 577, 578, 581, 585, 572, 593, 603, 604, 612, 610, 626, 598, 613, 624, 639, 666, 617, 691, 671, 695, 714, 707, 704, 730, 721, 725, 762, 737, 775, 741, 720, 776, 768, 827, 847, 820, 828, 773, 822, 831, 795, 851, 794, 849, 875, 871, 850, 817, 837, 820, 889, 933, 858, 893, 870, 916, 900, 895, 929, 878, 898, 921, 873, 903, 993, 965, 1019, 1035, 1085, 1057, 1165, 1159, 1163, 1160, 1138, 1181, 1183, 1239, 1239, 1234, 1269, 1269, 1275, 1302, 1282, 1311, 1318, 1338, 1330, 1292, 1332, 1348, 1349, 1357, 1370, 1391, 1443, 1445, 1445, 1441, 1425, 1398, 1406, 1207, 1175, 1139, 1119, 1111, 1111, 1111, 1113, 1121, 1159, 1116, 1110, 1110, 1110, 1110, 1110, 1110, 1110, 1110, 1110, 1110, 1110, 1110, 1110, 1110, 1110, 1110, 1110, 1110, 1110, 1110, 1110, 1110, 1110, 1110, 1111, 1112, 1114, 1120, 1119, 1306, 1333, 1416, 1401, 1355, 1680, 1837, 1843, 1875, 1881, 1885, 1887, 1888, 1887, 1888, 1887, 1886, 1886, 1886, 1886, 1886, 1886, 1886, 1886, 1886, 1886, 1886, 1886, 1886, 1886, 1885, 1887, 1885, 1885, 1884, 1884, 1884, 1883, 1882, 1883, 1883, 1883, 1883, 1883, 1883, 1883, 1883, 1883, 1882, 1882, 1882, 1882, 1882, 1882, 1883, 1883, 1883, 1883, 1884, 1883, 1882, 1883, 1884, 1882, 1884, 1884, 1884, 1884, 1884, 1883, 1884, 1884, 1884, 1886, 1895, 1896, 1903, 1907, 1908, 1911, 1911, 1911, 1912, 1912, 1912, 1913, 1914, 1916, 1918, 1918, 1919, 1920, 1921, 1920, 1919, 1920, 1919, 1920, 1917, 1920, 1920, 1921, 1922, 1922, 1923, 1923, 1923, 1924, 1924, 1924, 1924, 1924, 1924, 1924, 1924,
       1248, 1246, 1240, 1237, 1237, 1236, 1226, 1229, 1225, 1219, 1204, 1197, 1194, 1189, 1186, 1184, 1178, 1176, 1175, 1170, 1167, 1162, 1154, 1150, 1145, 1139, 1132, 1131, 1127, 1121, 1118, 1115, 1114, 1111, 1109, 1106, 1106, 1105, 1102, 1101, 1099, 1098, 1096, 1096, 1091, 1090, 1089, 1087, 1085, 1083, 1082, 1081, 1080, 1079, 1078, 1076, 1075, 1074, 1073, 1072, 1072, 1070, 1069, 1069, 1067, 1067, 1066, 1065, 1064, 1063, 1063, 1062, 1061, 1060, 1059, 1059, 1058, 1057, 1056, 1055, 1055, 1054, 1053, 1050, 1049, 1047, 1044, 1045, 1046, 1045, 1039, 1041, 1037, 1039, 1038, 1035, 1035, 1032, 1029, 1027, 1022, 1020, 1018, 1006, 1018, 986, 995, 999, 991, 997, 996, 984, 984, 978, 973, 971, 960, 952, 959, 950, 947, 939, 916, 896, 915, 918, 892, 885, 867, 861, 847, 841, 831, 809, 796, 763, 736, 742, 736, 714, 691, 691, 656, 653, 640, 638, 629, 597, 594, 597, 578, 570, 569, 563, 561, 563, 548, 541, 544, 543, 543, 541, 538, 538, 537, 535, 533, 531, 527, 529, 528, 527, 524, 526, 524, 524, 524, 522, 523, 522, 521, 521, 521, 521, 520, 520, 520, 520, 519, 518, 519, 518, 517, 519, 517, 517, 517, 516, 515, 516, 516, 517, 517, 517, 517, 517, 518, 517, 518, 518, 518, 518, 519, 519, 518, 518, 519, 519, 520, 521, 520, 520, 522, 521, 523, 523, 523, 525, 525, 525, 526, 526, 527, 526, 527, 531, 531, 530, 531, 531, 533, 535, 535, 536, 533, 533, 533, 536, 537, 537, 537, 539, 543, 542, 540, 544, 543, 546, 546, 546, 547, 547, 547, 554, 547, 561, 557, 554, 553, 555, 560, 566, 564, 567, 563, 565, 573, 577, 566, 570, 577, 580, 583, 585, 573, 594, 604, 605, 614, 611, 627, 600, 614, 625, 639, 667, 618, 692, 673, 696, 715, 709, 709, 738, 722, 725, 764, 738, 782, 763, 755, 779, 771, 828, 856, 832, 834, 784, 823, 832, 797, 875, 953, 875, 877, 884, 877, 824, 887, 831, 897, 934, 859, 902, 871, 920, 901, 908, 931, 879, 902, 922, 896, 904, 998, 965, 1022, 1037, 1091, 1059, 1168, 1159, 1165, 1197, 1248, 1187, 1184, 1240, 1249, 1236, 1270, 1270, 1279, 1304, 1283, 1313, 1323, 1343, 1332, 1293, 1333, 1350, 1350, 1358, 1371, 1390, 1436, 1448, 1442, 1441, 1424, 1398, 1409, 1207, 1176, 1165, 1119, 1112, 1111, 1111, 1113, 1126, 1184, 1117, 1110, 1110, 1110, 1110, 1110, 1110, 1110, 1110, 1110, 1110, 1110, 1110, 1110, 1110, 1110, 1110, 1110, 1110, 1110, 1110, 1110, 1110, 1110, 1111, 1111, 1112, 1112, 1120, 1118, 1253, 1357, 1439, 1408, 1511, 1681, 1826, 1843, 1884, 1881, 1887, 1887, 1888, 1889, 1888, 1887, 1886, 1887, 1887, 1886, 1886, 1886, 1886, 1886, 1886, 1887, 1886, 1886, 1886, 1886, 1886, 1887, 1885, 1885, 1884, 1885, 1883, 1883, 1884, 1884, 1883, 1883, 1883, 1883, 1881, 1883, 1883, 1883, 1882, 1882, 1882, 1882, 1882, 1882, 1882, 1883, 1883, 1882, 1881, 1881, 1882, 1881, 1881, 1882, 1884, 1884, 1884, 1883, 1883, 1883, 1886, 1886, 1893, 1887, 1895, 1898, 1902, 1908, 1908, 1912, 1911, 1911, 1912, 1912, 1912, 1913, 1915, 1916, 1918, 1918, 1918, 1920, 1921, 1919, 1919, 1920, 1919, 1920, 1917, 1920, 1920, 1921, 1922, 1922, 1923, 1923, 1923, 1924, 1924, 1924, 1924, 1924, 1924, 1924, 1924,
       1243, 1246, 1238, 1237, 1236, 1233, 1226, 1228, 1225, 1219, 1199, 1197, 1194, 1189, 1186, 1184, 1178, 1176, 1174, 1169, 1167, 1162, 1155, 1151, 1145, 1140, 1134, 1132, 1127, 1125, 1120, 1116, 1115, 1112, 1110, 1106, 1106, 1105, 1103, 1101, 1099, 1098, 1096, 1096, 1093, 1090, 1089, 1087, 1085, 1084, 1082, 1081, 1080, 1079, 1078, 1076, 1075, 1074, 1073, 1072, 1072, 1070, 1069, 1069, 1067, 1067, 1066, 1065, 1064, 1063, 1063, 1062, 1061, 1060, 1059, 1058, 1058, 1057, 1056, 1055, 1055, 1054, 1052, 1050, 1048, 1047, 1044, 1045, 1046, 1045, 1038, 1041, 1037, 1038, 1038, 1034, 1034, 1032, 1028, 1025, 1021, 1020, 1017, 1002, 1018, 985, 993, 993, 990, 994, 990, 980, 983, 972, 973, 971, 949, 952, 958, 949, 946, 938, 914, 892, 914, 918, 891, 884, 867, 844, 844, 840, 798, 807, 794, 763, 736, 742, 736, 714, 696, 708, 661, 653, 642, 639, 635, 597, 590, 595, 578, 570, 570, 564, 563, 563, 558, 542, 544, 543, 544, 541, 539, 538, 537, 535, 533, 531, 528, 529, 528, 527, 526, 526, 525, 524, 524, 523, 524, 522, 522, 521, 522, 521, 520, 520, 521, 520, 519, 519, 519, 519, 518, 519, 518, 517, 517, 517, 515, 516, 517, 517, 517, 517, 517, 517, 518, 517, 518, 518, 518, 518, 519, 519, 518, 518, 519, 520, 521, 521, 521, 521, 522, 521, 523, 523, 523, 525, 526, 525, 526, 527, 527, 527, 528, 531, 532, 531, 532, 531, 534, 535, 535, 536, 535, 533, 534, 537, 538, 538, 537, 539, 543, 543, 542, 545, 544, 547, 547, 547, 548, 548, 548, 554, 547, 562, 557, 555, 554, 556, 563, 567, 568, 568, 565, 566, 575, 578, 581, 571, 580, 582, 583, 585, 574, 595, 604, 611, 629, 613, 629, 601, 617, 626, 642, 671, 686, 692, 673, 697, 720, 716, 728, 741, 722, 726, 767, 739, 797, 776, 756, 806, 833, 831, 858, 839, 855, 854, 836, 837, 848, 876, 958, 879, 899, 910, 885, 914, 894, 836, 899, 936, 866, 907, 873, 920, 918, 910, 934, 881, 909, 966, 897, 919, 998, 976, 1022, 1044, 1093, 1108, 1172, 1159, 1172, 1203, 1248, 1190, 1239, 1270, 1250, 1250, 1274, 1273, 1282, 1307, 1285, 1331, 1340, 1351, 1347, 1295, 1338, 1351, 1350, 1360, 1373, 1390, 1396, 1438, 1447, 1441, 1420, 1397, 1240, 1210, 1179, 1148, 1119, 1114, 1111, 1111, 1185, 1142, 1214, 1116, 1110, 1110, 1110, 1110, 1110, 1110, 1110, 1110, 1110, 1110, 1110, 1110, 1110, 1110, 1110, 1110, 1110, 1110, 1110, 1110, 1110, 1110, 1111, 1111, 1111, 1112, 1112, 1119, 1118, 1253, 1363, 1439, 1408, 1674, 1682, 1827, 1852, 1884, 1881, 1888, 1887, 1888, 1889, 1888, 1887, 1886, 1887, 1888, 1888, 1886, 1886, 1886, 1886, 1887, 1887, 1886, 1887, 1887, 1886, 1889, 1889, 1890, 1889, 1889, 1887, 1889, 1889, 1884, 1884, 1883, 1883, 1883, 1883, 1883, 1883, 1882, 1882, 1882, 1882, 1882, 1882, 1882, 1882, 1882, 1882, 1881, 1881, 1881, 1881, 1881, 1881, 1881, 1882, 1882, 1883, 1884, 1883, 1883, 1882, 1887, 1886, 1894, 1901, 1896, 1898, 1902, 1908, 1908, 1908, 1909, 1911, 1912, 1912, 1912, 1913, 1915, 1915, 1915, 1917, 1918, 1920, 1919, 1918, 1919, 1920, 1919, 1918, 1918, 1919, 1920, 1921, 1922, 1922, 1923, 1923, 1923, 1924, 1924, 1924, 1924, 1924, 1924, 1924, 1924,
       1243, 1246, 1238, 1237, 1236, 1226, 1226, 1228, 1225, 1213, 1199, 1197, 1194, 1189, 1186, 1184, 1179, 1176, 1174, 1169, 1168, 1162, 1155, 1154, 1148, 1140, 1135, 1133, 1128, 1125, 1120, 1116, 1115, 1113, 1110, 1107, 1106, 1105, 1103, 1101, 1099, 1099, 1096, 1096, 1093, 1090, 1089, 1087, 1086, 1084, 1082, 1081, 1080, 1079, 1078, 1076, 1075, 1074, 1073, 1072, 1072, 1070, 1069, 1069, 1067, 1067, 1066, 1065, 1064, 1063, 1063, 1062, 1061, 1060, 1059, 1058, 1057, 1057, 1056, 1054, 1055, 1054, 1052, 1050, 1048, 1047, 1044, 1044, 1046, 1045, 1038, 1040, 1037, 1037, 1037, 1034, 1034, 1032, 1028, 1025, 1019, 1020, 1015, 1000, 1014, 985, 992, 989, 990, 983, 982, 977, 983, 967, 969, 968, 943, 952, 958, 949, 945, 938, 913, 891, 914, 914, 891, 883, 848, 843, 841, 840, 802, 807, 795, 763, 735, 741, 730, 713, 695, 709, 661, 657, 642, 639, 635, 597, 590, 588, 578, 572, 571, 564, 564, 563, 558, 556, 549, 544, 544, 542, 539, 539, 537, 535, 534, 532, 533, 529, 528, 527, 527, 526, 525, 525, 524, 523, 524, 523, 522, 522, 522, 521, 521, 520, 521, 520, 519, 520, 519, 519, 518, 519, 518, 517, 517, 517, 516, 517, 517, 517, 517, 517, 517, 517, 518, 517, 518, 518, 518, 518, 519, 519, 518, 519, 519, 520, 521, 521, 521, 521, 522, 522, 523, 523, 524, 525, 526, 526, 527, 527, 528, 527, 528, 531, 532, 531, 533, 532, 535, 536, 535, 537, 536, 539, 535, 537, 538, 539, 537, 540, 543, 543, 543, 545, 544, 547, 548, 547, 549, 550, 549, 555, 561, 562, 558, 556, 556, 556, 563, 568, 572, 569, 567, 569, 576, 579, 586, 571, 580, 582, 585, 587, 612, 596, 605, 613, 634, 614, 631, 613, 651, 627, 643, 673, 723, 695, 680, 698, 721, 718, 730, 742, 756, 730, 778, 741, 814, 803, 762, 807, 845, 832, 860, 853, 876, 857, 837, 873, 943, 877, 966, 882, 910, 911, 898, 915, 902, 843, 908, 945, 866, 912, 874, 951, 953, 925, 936, 885, 910, 970, 1058, 919, 1004, 977, 1132, 1091, 1096, 1111, 1174, 1176, 1173, 1205, 1251, 1199, 1240, 1273, 1256, 1254, 1301, 1287, 1283, 1310, 1286, 1333, 1345, 1353, 1348, 1296, 1341, 1354, 1351, 1360, 1383, 1399, 1402, 1438, 1447, 1441, 1420, 1409, 1249, 1210, 1256, 1148, 1120, 1129, 1111, 1111, 1118, 1142, 1214, 1116, 1115, 1113, 1113, 1110, 1110, 1110, 1110, 1110, 1110, 1110, 1110, 1110, 1110, 1110, 1110, 1110, 1110, 1110, 1110, 1110, 1110, 1110, 1111, 1111, 1111, 1112, 1112, 1116, 1118, 1175, 1180, 1438, 1406, 1714, 1712, 1867, 1880, 1883, 1881, 1886, 1886, 1887, 1886, 1889, 1887, 1888, 1887, 1888, 1888, 1888, 1886, 1886, 1886, 1887, 1888, 1888, 1889, 1890, 1890, 1890, 1889, 1890, 1889, 1889, 1889, 1889, 1889, 1884, 1884, 1883, 1883, 1883, 1883, 1883, 1883, 1882, 1882, 1882, 1882, 1882, 1882, 1882, 1882, 1882, 1881, 1881, 1881, 1881, 1881, 1881, 1881, 1881, 1882, 1882, 1883, 1884, 1883, 1883, 1882, 1883, 1886, 1887, 1889, 1896, 1898, 1902, 1905, 1907, 1908, 1909, 1911, 1909, 1911, 1912, 1913, 1915, 1915, 1914, 1916, 1918, 1920, 1919, 1918, 1919, 1919, 1916, 1917, 1918, 1918, 1920, 1921, 1922, 1923, 1923, 1923, 1923, 1924, 1924, 1924, 1924, 1924, 1924, 1924, 1924,
       1243, 1246, 1237, 1236, 1227, 1225, 1225, 1228, 1224, 1211, 1199, 1197, 1194, 1189, 1185, 1183, 1179, 1176, 1174, 1169, 1168, 1162, 1156, 1154, 1148, 1141, 1135, 1133, 1128, 1125, 1120, 1116, 1115, 1113, 1111, 1108, 1106, 1105, 1103, 1101, 1099, 1099, 1097, 1096, 1093, 1091, 1089, 1087, 1086, 1084, 1083, 1081, 1080, 1079, 1078, 1076, 1075, 1074, 1073, 1072, 1071, 1070, 1069, 1069, 1067, 1067, 1066, 1065, 1064, 1063, 1062, 1062, 1061, 1060, 1059, 1058, 1057, 1057, 1056, 1054, 1055, 1054, 1052, 1049, 1048, 1046, 1043, 1044, 1046, 1045, 1037, 1039, 1037, 1037, 1037, 1034, 1033, 1031, 1027, 1024, 1019, 1012, 1015, 998, 1012, 984, 986, 988, 989, 983, 982, 976, 978, 966, 961, 968, 936, 951, 955, 939, 942, 932, 909, 890, 913, 910, 890, 882, 847, 842, 841, 839, 802, 806, 795, 751, 733, 740, 718, 712, 694, 710, 660, 657, 642, 637, 630, 602, 600, 588, 578, 573, 572, 566, 565, 563, 559, 556, 550, 546, 545, 542, 541, 539, 537, 536, 534, 532, 534, 529, 528, 527, 528, 527, 525, 526, 524, 523, 524, 523, 522, 522, 522, 521, 521, 520, 521, 520, 520, 520, 519, 519, 518, 519, 518, 517, 517, 517, 516, 517, 517, 517, 518, 517, 517, 518, 518, 517, 518, 518, 518, 518, 520, 519, 518, 519, 519, 520, 521, 522, 521, 521, 522, 522, 523, 524, 524, 525, 526, 526, 527, 527, 528, 528, 529, 531, 532, 531, 533, 532, 535, 536, 535, 537, 536, 540, 541, 539, 539, 540, 539, 541, 544, 544, 543, 545, 545, 548, 549, 547, 550, 552, 550, 555, 561, 563, 560, 561, 557, 556, 564, 569, 573, 569, 567, 571, 576, 581, 588, 578, 581, 588, 587, 588, 613, 597, 617, 616, 634, 622, 632, 613, 654, 639, 655, 704, 724, 696, 684, 725, 722, 719, 741, 755, 757, 731, 782, 742, 816, 805, 764, 815, 859, 836, 861, 857, 879, 857, 839, 875, 944, 885, 968, 884, 916, 913, 912, 918, 930, 845, 925, 954, 866, 914, 877, 956, 954, 977, 938, 886, 912, 977, 1069, 1025, 1024, 1135, 1140, 1094, 1098, 1112, 1176, 1178, 1175, 1210, 1269, 1291, 1304, 1274, 1257, 1257, 1302, 1291, 1308, 1311, 1288, 1335, 1349, 1354, 1352, 1388, 1386, 1357, 1351, 1361, 1389, 1399, 1402, 1429, 1447, 1443, 1420, 1409, 1252, 1226, 1256, 1148, 1120, 1131, 1111, 1440, 1448, 1457, 1216, 1193, 1175, 1113, 1113, 1110, 1110, 1110, 1110, 1110, 1110, 1110, 1110, 1110, 1110, 1110, 1110, 1110, 1110, 1110, 1110, 1110, 1110, 1110, 1111, 1111, 1111, 1111, 1112, 1124, 1119, 1171, 1178, 1438, 1342, 1716, 1712, 1866, 1881, 1883, 1881, 1886, 1886, 1887, 1886, 1889, 1887, 1888, 1887, 1888, 1888, 1888, 1886, 1888, 1887, 1887, 1889, 1889, 1889, 1890, 1890, 1890, 1889, 1890, 1889, 1889, 1889, 1889, 1889, 1887, 1884, 1883, 1883, 1884, 1883, 1883, 1883, 1882, 1883, 1882, 1882, 1882, 1882, 1882, 1882, 1881, 1881, 1881, 1881, 1881, 1881, 1881, 1881, 1881, 1882, 1882, 1883, 1884, 1883, 1883, 1881, 1883, 1886, 1890, 1889, 1896, 1892, 1902, 1905, 1906, 1908, 1909, 1911, 1909, 1910, 1912, 1906, 1914, 1915, 1914, 1916, 1917, 1918, 1912, 1918, 1919, 1914, 1914, 1916, 1917, 1918, 1920, 1920, 1922, 1923, 1923, 1923, 1924, 1924, 1924, 1924, 1924, 1924, 1924, 1924, 1924,
       1242, 1245, 1237, 1233, 1227, 1225, 1225, 1228, 1222, 1206, 1199, 1195, 1194, 1189, 1185, 1183, 1179, 1176, 1174, 1169, 1168, 1162, 1157, 1155, 1149, 1147, 1135, 1134, 1131, 1125, 1121, 1118, 1116, 1113, 1111, 1108, 1106, 1105, 1103, 1101, 1099, 1099, 1097, 1096, 1093, 1091, 1090, 1088, 1086, 1084, 1083, 1081, 1080, 1079, 1078, 1076, 1075, 1074, 1073, 1072, 1071, 1070, 1069, 1068, 1067, 1067, 1066, 1065, 1064, 1063, 1062, 1061, 1061, 1060, 1059, 1058, 1057, 1057, 1055, 1054, 1055, 1054, 1051, 1049, 1048, 1045, 1043, 1044, 1046, 1044, 1037, 1039, 1037, 1036, 1037, 1029, 1033, 1031, 1027, 1023, 1018, 1004, 1014, 997, 1011, 984, 986, 988, 988, 982, 979, 972, 969, 965, 961, 968, 935, 951, 955, 938, 942, 930, 905, 890, 913, 906, 890, 879, 841, 842, 816, 834, 801, 799, 793, 750, 730, 739, 716, 710, 691, 710, 660, 655, 638, 632, 630, 605, 600, 594, 588, 578, 573, 566, 565, 563, 559, 557, 553, 547, 545, 542, 543, 539, 537, 536, 534, 534, 534, 529, 529, 527, 528, 527, 526, 526, 524, 523, 524, 523, 522, 522, 522, 522, 521, 521, 521, 520, 520, 520, 519, 519, 518, 519, 518, 518, 517, 517, 517, 517, 517, 517, 518, 518, 517, 518, 518, 518, 518, 518, 518, 518, 520, 519, 519, 519, 520, 520, 521, 522, 521, 521, 522, 522, 524, 524, 525, 526, 526, 527, 527, 528, 528, 528, 529, 532, 532, 534, 534, 532, 535, 536, 536, 538, 537, 541, 543, 541, 540, 540, 539, 542, 544, 545, 543, 546, 546, 548, 549, 548, 550, 552, 551, 556, 562, 563, 561, 563, 558, 558, 565, 571, 573, 572, 569, 574, 589, 581, 588, 578, 581, 590, 588, 593, 614, 612, 618, 616, 636, 626, 634, 673, 672, 640, 656, 706, 724, 700, 708, 726, 724, 721, 744, 756, 759, 737, 785, 746, 818, 809, 766, 818, 863, 839, 865, 887, 885, 860, 864, 914, 950, 885, 970, 891, 920, 921, 914, 920, 934, 852, 927, 965, 997, 1055, 960, 1028, 1025, 984, 1050, 1110, 1118, 979, 1070, 1027, 1060, 1136, 1141, 1097, 1102, 1115, 1179, 1179, 1179, 1239, 1279, 1292, 1305, 1308, 1274, 1278, 1325, 1291, 1311, 1320, 1291, 1337, 1352, 1357, 1354, 1391, 1389, 1361, 1364, 1362, 1390, 1400, 1402, 1425, 1446, 1447, 1423, 1409, 1388, 1235, 1258, 1148, 1120, 1152, 1124, 1433, 1452, 1461, 1228, 1193, 1175, 1125, 1113, 1110, 1110, 1110, 1110, 1110, 1110, 1110, 1110, 1110, 1110, 1110, 1110, 1110, 1110, 1110, 1110, 1110, 1110, 1110, 1111, 1111, 1111, 1111, 1112, 1124, 1119, 1160, 1177, 1437, 1341, 1847, 1716, 1862, 1881, 1883, 1884, 1886, 1881, 1887, 1888, 1889, 1888, 1888, 1887, 1888, 1888, 1888, 1886, 1888, 1887, 1888, 1889, 1889, 1889, 1890, 1890, 1890, 1889, 1889, 1889, 1889, 1889, 1889, 1889, 1887, 1884, 1881, 1884, 1884, 1883, 1883, 1883, 1883, 1883, 1882, 1882, 1882, 1882, 1882, 1882, 1881, 1881, 1881, 1881, 1881, 1881, 1881, 1881, 1881, 1882, 1881, 1882, 1882, 1881, 1883, 1881, 1900, 1886, 1890, 1889, 1896, 1901, 1902, 1902, 1906, 1907, 1907, 1909, 1909, 1910, 1911, 1906, 1907, 1909, 1914, 1916, 1916, 1910, 1912, 1917, 1918, 1914, 1914, 1911, 1915, 1918, 1918, 1920, 1922, 1923, 1923, 1923, 1924, 1924, 1924, 1924, 1924, 1924, 1924, 1924, 1924,
       1241, 1245, 1235, 1232, 1227, 1225, 1223, 1212, 1202, 1204, 1198, 1194, 1191, 1188, 1185, 1183, 1179, 1176, 1174, 1169, 1168, 1163, 1157, 1155, 1149, 1147, 1136, 1135, 1131, 1125, 1121, 1118, 1116, 1113, 1111, 1108, 1106, 1105, 1103, 1101, 1100, 1099, 1097, 1096, 1093, 1091, 1091, 1088, 1086, 1084, 1083, 1082, 1080, 1079, 1078, 1076, 1075, 1074, 1073, 1072, 1071, 1070, 1069, 1068, 1067, 1066, 1065, 1065, 1064, 1063, 1062, 1061, 1061, 1060, 1059, 1058, 1057, 1057, 1055, 1054, 1055, 1053, 1051, 1048, 1045, 1045, 1041, 1043, 1046, 1044, 1037, 1039, 1036, 1036, 1037, 1029, 1033, 1031, 1027, 1022, 1018, 996, 1013, 996, 997, 984, 985, 988, 979, 971, 966, 965, 966, 962, 951, 953, 935, 948, 955, 938, 941, 926, 888, 889, 912, 906, 875, 876, 840, 841, 809, 834, 798, 799, 792, 734, 728, 732, 716, 703, 687, 652, 659, 651, 637, 632, 627, 606, 600, 599, 588, 578, 573, 570, 566, 563, 559, 557, 553, 547, 548, 543, 544, 540, 538, 538, 534, 534, 535, 530, 529, 529, 528, 527, 526, 526, 524, 523, 524, 523, 522, 522, 522, 522, 522, 522, 521, 520, 520, 520, 519, 519, 518, 519, 518, 518, 518, 517, 517, 517, 517, 518, 519, 518, 518, 518, 518, 518, 518, 518, 519, 519, 520, 520, 519, 519, 520, 520, 521, 522, 521, 522, 523, 523, 525, 524, 525, 526, 527, 527, 527, 528, 529, 528, 529, 532, 533, 534, 535, 533, 536, 536, 537, 539, 537, 541, 543, 541, 541, 542, 540, 542, 545, 545, 544, 547, 546, 548, 551, 552, 552, 553, 551, 557, 562, 566, 562, 564, 558, 559, 566, 572, 576, 572, 572, 575, 589, 584, 589, 585, 582, 590, 590, 601, 615, 616, 621, 618, 637, 628, 636, 673, 673, 657, 659, 711, 724, 725, 712, 727, 724, 725, 747, 758, 760, 782, 787, 746, 821, 812, 766, 822, 865, 853, 882, 891, 911, 884, 868, 916, 952, 888, 978, 905, 923, 925, 943, 921, 951, 1021, 958, 970, 997, 1060, 962, 1030, 1026, 1032, 1051, 1111, 1121, 989, 1129, 1132, 1113, 1139, 1142, 1107, 1102, 1157, 1181, 1183, 1195, 1247, 1280, 1296, 1315, 1309, 1299, 1331, 1330, 1292, 1313, 1328, 1302, 1338, 1353, 1357, 1358, 1391, 1390, 1363, 1365, 1363, 1391, 1400, 1404, 1414, 1441, 1447, 1427, 1409, 1396, 1235, 1264, 1157, 1137, 1153, 1226, 1367, 1450, 1461, 1276, 1144, 1136, 1121, 1112, 1110, 1110, 1110, 1110, 1110, 1110, 1110, 1110, 1110, 1110, 1110, 1110, 1110, 1110, 1110, 1110, 1110, 1110, 1110, 1111, 1111, 1111, 1111, 1112, 1113, 1118, 1119, 1128, 1425, 1338, 1537, 1715, 1862, 1811, 1833, 1867, 1856, 1880, 1885, 1888, 1889, 1888, 1888, 1887, 1888, 1888, 1888, 1886, 1888, 1888, 1888, 1889, 1889, 1890, 1890, 1890, 1890, 1889, 1889, 1890, 1889, 1889, 1889, 1889, 1887, 1888, 1884, 1884, 1884, 1884, 1883, 1883, 1883, 1883, 1883, 1882, 1882, 1882, 1883, 1881, 1881, 1881, 1881, 1881, 1881, 1881, 1881, 1881, 1881, 1881, 1881, 1881, 1882, 1881, 1881, 1881, 1881, 1886, 1884, 1889, 1898, 1901, 1903, 1903, 1906, 1906, 1907, 1909, 1909, 1908, 1911, 1907, 1907, 1908, 1914, 1915, 1915, 1910, 1912, 1915, 1918, 1908, 1914, 1911, 1915, 1917, 1918, 1920, 1922, 1923, 1924, 1924, 1924, 1924, 1924, 1924, 1924, 1924, 1924, 1924, 1924,
       1241, 1236, 1235, 1228, 1226, 1224, 1222, 1212, 1202, 1204, 1198, 1194, 1191, 1188, 1185, 1183, 1179, 1176, 1173, 1169, 1168, 1163, 1157, 1155, 1149, 1147, 1142, 1136, 1132, 1126, 1123, 1119, 1116, 1114, 1111, 1109, 1107, 1105, 1103, 1102, 1100, 1099, 1097, 1096, 1093, 1091, 1091, 1088, 1087, 1084, 1083, 1082, 1080, 1079, 1078, 1076, 1075, 1074, 1073, 1072, 1071, 1070, 1069, 1068, 1066, 1066, 1065, 1065, 1064, 1063, 1062, 1061, 1060, 1060, 1058, 1058, 1057, 1056, 1055, 1054, 1054, 1053, 1051, 1048, 1045, 1045, 1041, 1043, 1045, 1043, 1037, 1039, 1036, 1036, 1036, 1028, 1033, 1031, 1026, 1022, 1017, 996, 1012, 995, 995, 983, 984, 987, 977, 970, 965, 964, 966, 961, 950, 952, 932, 945, 954, 933, 940, 913, 885, 888, 912, 904, 872, 875, 837, 840, 808, 831, 793, 798, 772, 723, 703, 704, 715, 702, 681, 649, 659, 650, 637, 630, 623, 606, 600, 599, 588, 579, 574, 570, 567, 565, 559, 557, 553, 548, 548, 543, 544, 540, 538, 538, 535, 534, 535, 530, 530, 530, 528, 527, 526, 526, 525, 523, 524, 523, 523, 522, 523, 522, 522, 522, 521, 520, 520, 520, 519, 520, 518, 520, 518, 518, 518, 518, 519, 518, 517, 518, 519, 518, 518, 518, 518, 518, 519, 519, 519, 519, 520, 520, 520, 519, 520, 520, 521, 522, 521, 523, 523, 523, 525, 524, 525, 526, 527, 527, 528, 529, 529, 528, 529, 532, 533, 534, 535, 534, 537, 537, 537, 540, 538, 541, 543, 541, 542, 547, 549, 543, 545, 545, 544, 547, 547, 549, 552, 552, 554, 553, 551, 557, 563, 566, 563, 567, 559, 563, 567, 573, 577, 573, 572, 576, 590, 584, 590, 590, 588, 591, 594, 602, 629, 619, 625, 621, 639, 629, 638, 675, 673, 670, 659, 713, 726, 732, 712, 728, 730, 738, 753, 768, 766, 827, 801, 749, 827, 814, 767, 827, 867, 857, 884, 896, 912, 888, 964, 942, 959, 892, 980, 912, 925, 929, 946, 927, 968, 1021, 974, 979, 998, 1064, 978, 1031, 1031, 1034, 1055, 1112, 1125, 990, 1130, 1133, 1159, 1157, 1145, 1112, 1177, 1178, 1212, 1283, 1218, 1260, 1285, 1297, 1316, 1309, 1305, 1343, 1333, 1350, 1323, 1330, 1303, 1340, 1357, 1363, 1362, 1392, 1391, 1392, 1370, 1364, 1392, 1401, 1405, 1414, 1417, 1445, 1448, 1408, 1286, 1236, 1264, 1161, 1280, 1153, 1357, 1376, 1447, 1461, 1313, 1121, 1136, 1111, 1112, 1110, 1110, 1110, 1110, 1110, 1110, 1110, 1110, 1110, 1110, 1110, 1110, 1110, 1110, 1110, 1110, 1110, 1110, 1110, 1111, 1111, 1111, 1111, 1112, 1113, 1114, 1118, 1128, 1217, 1306, 1524, 1714, 1857, 1810, 1832, 1858, 1856, 1857, 1884, 1888, 1889, 1887, 1887, 1886, 1888, 1888, 1889, 1888, 1888, 1888, 1889, 1889, 1889, 1890, 1890, 1890, 1890, 1890, 1889, 1889, 1889, 1889, 1889, 1889, 1889, 1884, 1884, 1884, 1884, 1884, 1883, 1883, 1883, 1883, 1883, 1882, 1882, 1882, 1881, 1881, 1881, 1881, 1881, 1881, 1881, 1881, 1881, 1881, 1881, 1881, 1881, 1881, 1882, 1881, 1881, 1881, 1881, 1887, 1888, 1889, 1898, 1900, 1903, 1903, 1906, 1906, 1906, 1908, 1909, 1908, 1907, 1907, 1907, 1908, 1913, 1911, 1915, 1910, 1910, 1907, 1910, 1907, 1907, 1911, 1914, 1917, 1917, 1923, 1923, 1923, 1924, 1924, 1924, 1924, 1924, 1924, 1924, 1924, 1924, 1924, 1924,
       1241, 1235, 1235, 1228, 1226, 1222, 1221, 1212, 1203, 1202, 1197, 1194, 1190, 1188, 1185, 1183, 1179, 1177, 1173, 1169, 1168, 1163, 1157, 1155, 1150, 1148, 1142, 1137, 1132, 1126, 1126, 1119, 1116, 1114, 1111, 1109, 1107, 1106, 1103, 1102, 1100, 1099, 1097, 1096, 1094, 1092, 1091, 1088, 1087, 1084, 1083, 1082, 1081, 1079, 1078, 1076, 1075, 1074, 1073, 1072, 1071, 1070, 1069, 1068, 1066, 1066, 1065, 1065, 1064, 1063, 1062, 1061, 1060, 1059, 1057, 1058, 1057, 1056, 1055, 1054, 1054, 1053, 1050, 1048, 1044, 1045, 1041, 1043, 1043, 1040, 1036, 1038, 1036, 1036, 1031, 1028, 1033, 1030, 1025, 1021, 1017, 995, 1011, 994, 995, 983, 983, 987, 976, 968, 965, 960, 964, 959, 946, 951, 930, 937, 926, 930, 903, 913, 884, 887, 900, 903, 872, 871, 836, 839, 808, 816, 793, 797, 733, 718, 702, 703, 713, 683, 671, 649, 656, 649, 636, 630, 621, 606, 600, 599, 589, 580, 574, 575, 567, 565, 560, 558, 554, 548, 548, 547, 545, 540, 541, 538, 535, 534, 535, 533, 530, 530, 529, 527, 526, 526, 525, 524, 524, 524, 524, 523, 523, 522, 522, 522, 521, 520, 521, 520, 519, 520, 518, 520, 518, 518, 518, 518, 519, 518, 518, 518, 519, 518, 518, 518, 519, 518, 519, 520, 519, 520, 520, 520, 520, 519, 520, 520, 522, 522, 521, 523, 523, 523, 525, 525, 525, 527, 528, 528, 529, 529, 529, 529, 530, 533, 534, 534, 536, 534, 537, 538, 538, 540, 539, 542, 543, 542, 544, 548, 550, 544, 545, 549, 549, 551, 549, 550, 553, 552, 554, 553, 552, 558, 563, 566, 565, 568, 560, 571, 574, 575, 578, 575, 573, 577, 592, 585, 591, 590, 591, 593, 598, 602, 629, 621, 626, 622, 642, 642, 639, 683, 674, 673, 661, 714, 738, 733, 713, 728, 731, 740, 755, 774, 768, 828, 805, 777, 837, 822, 773, 835, 870, 911, 902, 905, 939, 891, 967, 944, 961, 892, 997, 915, 937, 933, 950, 936, 969, 1021, 976, 982, 998, 1078, 980, 1033, 1033, 1035, 1071, 1113, 1127, 997, 1137, 1133, 1162, 1161, 1148, 1132, 1216, 1267, 1224, 1292, 1222, 1263, 1288, 1304, 1319, 1310, 1311, 1346, 1336, 1351, 1331, 1334, 1306, 1355, 1358, 1366, 1364, 1392, 1396, 1392, 1390, 1403, 1404, 1401, 1406, 1414, 1417, 1443, 1448, 1402, 1286, 1237, 1269, 1163, 1294, 1216, 1355, 1376, 1448, 1461, 1330, 1121, 1135, 1111, 1112, 1110, 1110, 1110, 1110, 1110, 1110, 1110, 1110, 1110, 1110, 1110, 1110, 1110, 1110, 1110, 1110, 1110, 1110, 1110, 1110, 1111, 1111, 1111, 1112, 1112, 1114, 1118, 1128, 1184, 1160, 1519, 1238, 1638, 1809, 1822, 1828, 1855, 1857, 1884, 1887, 1887, 1887, 1887, 1886, 1889, 1889, 1889, 1888, 1889, 1889, 1889, 1889, 1889, 1890, 1890, 1890, 1890, 1890, 1889, 1889, 1889, 1889, 1889, 1888, 1885, 1885, 1884, 1884, 1884, 1884, 1883, 1883, 1883, 1883, 1883, 1882, 1881, 1881, 1881, 1881, 1881, 1881, 1881, 1881, 1881, 1881, 1881, 1881, 1881, 1881, 1881, 1881, 1882, 1881, 1881, 1881, 1881, 1884, 1887, 1889, 1898, 1900, 1901, 1903, 1905, 1906, 1906, 1908, 1908, 1908, 1907, 1907, 1907, 1908, 1913, 1910, 1915, 1909, 1908, 1907, 1907, 1907, 1907, 1910, 1907, 1917, 1922, 1923, 1923, 1923, 1923, 1926, 1926, 1924, 1924, 1924, 1924, 1924, 1924, 1924, 1924,
       1240, 1234, 1233, 1228, 1225, 1222, 1219, 1211, 1203, 1202, 1196, 1194, 1190, 1188, 1185, 1184, 1179, 1177, 1173, 1169, 1168, 1164, 1157, 1155, 1150, 1148, 1142, 1137, 1133, 1126, 1127, 1119, 1117, 1114, 1111, 1109, 1107, 1106, 1104, 1102, 1100, 1099, 1097, 1096, 1094, 1092, 1091, 1089, 1087, 1086, 1084, 1082, 1081, 1080, 1078, 1076, 1075, 1074, 1073, 1072, 1071, 1070, 1069, 1068, 1066, 1066, 1065, 1065, 1064, 1063, 1062, 1061, 1060, 1059, 1057, 1058, 1056, 1056, 1054, 1053, 1054, 1053, 1050, 1048, 1044, 1044, 1041, 1042, 1043, 1039, 1034, 1038, 1035, 1035, 1030, 1028, 1032, 1027, 1025, 1019, 1016, 992, 1006, 990, 994, 982, 974, 986, 976, 968, 963, 958, 961, 958, 944, 950, 929, 937, 926, 929, 901, 893, 873, 886, 898, 881, 872, 850, 832, 837, 807, 816, 789, 785, 730, 717, 701, 703, 713, 682, 670, 649, 652, 649, 635, 626, 621, 606, 600, 599, 588, 580, 574, 575, 568, 566, 560, 559, 554, 548, 548, 548, 545, 540, 541, 538, 535, 535, 535, 533, 531, 530, 529, 527, 526, 526, 525, 524, 524, 525, 524, 523, 523, 523, 522, 522, 522, 521, 521, 520, 519, 520, 519, 520, 518, 519, 519, 518, 519, 518, 518, 519, 519, 519, 518, 519, 519, 519, 519, 520, 519, 520, 520, 520, 521, 520, 521, 520, 522, 523, 522, 523, 523, 523, 525, 527, 527, 528, 528, 529, 529, 531, 531, 532, 532, 533, 535, 535, 537, 535, 538, 538, 539, 540, 539, 543, 544, 543, 545, 548, 551, 544, 546, 550, 549, 551, 550, 550, 553, 554, 556, 554, 555, 558, 563, 567, 567, 571, 562, 571, 575, 576, 584, 578, 584, 578, 594, 586, 594, 591, 597, 600, 599, 603, 630, 623, 626, 624, 645, 644, 644, 683, 678, 693, 708, 720, 741, 737, 717, 731, 734, 744, 756, 777, 769, 829, 808, 779, 848, 876, 830, 844, 874, 919, 911, 915, 943, 980, 998, 974, 994, 894, 999, 917, 982, 940, 952, 953, 971, 1022, 984, 1052, 1082, 1080, 987, 1074, 1038, 1042, 1073, 1115, 1128, 998, 1167, 1133, 1163, 1162, 1150, 1134, 1218, 1268, 1225, 1293, 1286, 1281, 1289, 1304, 1319, 1320, 1312, 1346, 1336, 1352, 1339, 1338, 1308, 1356, 1360, 1367, 1367, 1394, 1397, 1393, 1390, 1404, 1404, 1402, 1406, 1414, 1418, 1425, 1447, 1302, 1286, 1237, 1273, 1265, 1333, 1303, 1414, 1377, 1448, 1462, 1330, 1121, 1135, 1111, 1112, 1110, 1110, 1110, 1110, 1110, 1110, 1110, 1110, 1110, 1110, 1110, 1110, 1110, 1110, 1110, 1110, 1110, 1110, 1110, 1110, 1111, 1111, 1111, 1112, 1112, 1114, 1118, 1127, 1178, 1149, 1176, 1228, 1309, 1804, 1822, 1828, 1806, 1851, 1843, 1887, 1887, 1887, 1886, 1886, 1888, 1889, 1889, 1888, 1889, 1889, 1889, 1889, 1889, 1890, 1890, 1890, 1890, 1890, 1889, 1889, 1889, 1888, 1886, 1886, 1885, 1885, 1884, 1888, 1884, 1884, 1883, 1883, 1883, 1883, 1884, 1881, 1881, 1881, 1881, 1881, 1881, 1881, 1881, 1881, 1881, 1881, 1881, 1881, 1881, 1881, 1881, 1881, 1882, 1881, 1881, 1881, 1881, 1884, 1890, 1892, 1898, 1900, 1900, 1903, 1905, 1906, 1906, 1907, 1906, 1906, 1907, 1907, 1907, 1908, 1913, 1910, 1915, 1909, 1908, 1907, 1907, 1906, 1907, 1910, 1907, 1908, 1922, 1923, 1923, 1926, 1925, 1926, 1926, 1925, 1924, 1925, 1924, 1925, 1925, 1925, 1926,
       1239, 1234, 1232, 1228, 1219, 1222, 1218, 1211, 1203, 1201, 1195, 1194, 1190, 1188, 1185, 1184, 1179, 1177, 1173, 1169, 1168, 1164, 1157, 1155, 1150, 1148, 1142, 1137, 1135, 1131, 1127, 1120, 1117, 1115, 1112, 1109, 1107, 1106, 1104, 1102, 1100, 1099, 1097, 1096, 1094, 1092, 1091, 1089, 1087, 1086, 1084, 1083, 1081, 1080, 1078, 1077, 1075, 1074, 1073, 1072, 1071, 1070, 1069, 1068, 1066, 1066, 1065, 1065, 1063, 1062, 1062, 1061, 1060, 1059, 1057, 1058, 1056, 1056, 1054, 1053, 1054, 1053, 1049, 1047, 1043, 1044, 1040, 1041, 1043, 1039, 1029, 1032, 1034, 1035, 1030, 1027, 1031, 1026, 1024, 1016, 1015, 990, 997, 983, 994, 981, 964, 983, 975, 967, 963, 958, 953, 957, 915, 950, 929, 937, 925, 929, 900, 893, 869, 884, 877, 881, 863, 849, 831, 834, 796, 816, 788, 762, 730, 711, 700, 701, 710, 682, 667, 648, 651, 648, 635, 625, 613, 602, 600, 590, 588, 579, 574, 574, 568, 566, 560, 559, 556, 550, 549, 548, 545, 542, 541, 539, 538, 535, 535, 533, 531, 531, 529, 527, 527, 526, 525, 524, 525, 525, 524, 523, 523, 523, 522, 522, 522, 521, 521, 521, 519, 520, 519, 520, 519, 519, 519, 519, 519, 518, 518, 519, 519, 519, 518, 519, 519, 519, 520, 520, 519, 520, 521, 520, 521, 520, 521, 521, 522, 523, 522, 523, 524, 524, 526, 527, 528, 529, 529, 530, 530, 531, 532, 533, 533, 534, 536, 535, 537, 535, 538, 539, 539, 542, 540, 543, 545, 543, 545, 549, 553, 552, 549, 550, 549, 552, 550, 551, 556, 556, 557, 555, 555, 559, 564, 568, 571, 571, 562, 571, 577, 577, 586, 578, 586, 580, 594, 597, 595, 592, 600, 604, 599, 605, 632, 632, 638, 626, 646, 644, 646, 683, 679, 694, 709, 723, 743, 742, 719, 736, 736, 746, 757, 778, 770, 831, 817, 842, 870, 878, 902, 845, 881, 928, 948, 935, 945, 983, 1002, 976, 997, 895, 1002, 929, 988, 944, 954, 953, 976, 1048, 992, 1054, 1085, 1081, 1124, 1075, 1043, 1045, 1075, 1125, 1130, 1168, 1176, 1134, 1167, 1169, 1227, 1163, 1220, 1272, 1227, 1296, 1289, 1283, 1333, 1315, 1336, 1351, 1329, 1347, 1337, 1356, 1343, 1344, 1396, 1378, 1364, 1368, 1368, 1394, 1397, 1393, 1390, 1404, 1405, 1405, 1409, 1414, 1418, 1422, 1443, 1448, 1286, 1238, 1280, 1266, 1397, 1317, 1417, 1344, 1464, 1462, 1427, 1208, 1128, 1111, 1112, 1110, 1110, 1110, 1110, 1110, 1110, 1110, 1110, 1110, 1110, 1110, 1110, 1110, 1110, 1110, 1110, 1110, 1110, 1110, 1110, 1111, 1111, 1111, 1111, 1112, 1112, 1112, 1116, 1128, 1148, 1176, 1174, 1285, 1793, 1822, 1827, 1702, 1849, 1842, 1887, 1885, 1887, 1886, 1886, 1888, 1888, 1889, 1888, 1889, 1889, 1889, 1889, 1889, 1890, 1890, 1890, 1890, 1890, 1890, 1888, 1889, 1888, 1887, 1887, 1885, 1885, 1885, 1885, 1884, 1884, 1883, 1883, 1883, 1882, 1882, 1882, 1881, 1881, 1881, 1881, 1881, 1881, 1881, 1881, 1881, 1881, 1881, 1881, 1881, 1881, 1881, 1881, 1882, 1881, 1881, 1881, 1881, 1881, 1891, 1892, 1898, 1898, 1898, 1903, 1906, 1906, 1906, 1907, 1906, 1906, 1907, 1906, 1907, 1905, 1908, 1909, 1913, 1909, 1909, 1909, 1907, 1906, 1907, 1910, 1917, 1910, 1917, 1923, 1923, 1926, 1925, 1926, 1926, 1925, 1925, 1925, 1924, 1925, 1926, 1926, 1926,
       1236, 1233, 1231, 1227, 1217, 1221, 1217, 1208, 1200, 1201, 1195, 1194, 1190, 1188, 1185, 1184, 1179, 1177, 1173, 1169, 1168, 1164, 1156, 1155, 1148, 1147, 1142, 1137, 1135, 1131, 1127, 1121, 1118, 1115, 1112, 1110, 1107, 1106, 1104, 1102, 1100, 1099, 1097, 1096, 1094, 1092, 1091, 1089, 1087, 1086, 1084, 1083, 1081, 1080, 1078, 1077, 1075, 1074, 1073, 1072, 1071, 1070, 1068, 1068, 1066, 1066, 1065, 1065, 1063, 1062, 1062, 1061, 1060, 1058, 1057, 1057, 1055, 1056, 1053, 1053, 1054, 1053, 1049, 1047, 1043, 1044, 1040, 1041, 1040, 1038, 1029, 1032, 1034, 1035, 1029, 1027, 1031, 1025, 1024, 1013, 1014, 989, 997, 981, 958, 981, 963, 983, 974, 965, 945, 956, 952, 954, 913, 946, 903, 936, 923, 925, 899, 891, 822, 883, 877, 867, 863, 846, 830, 832, 790, 816, 788, 762, 729, 710, 694, 700, 691, 681, 665, 643, 636, 648, 634, 622, 607, 601, 600, 589, 588, 577, 574, 574, 568, 566, 560, 559, 556, 551, 551, 548, 545, 544, 541, 539, 538, 537, 536, 536, 532, 531, 529, 528, 527, 527, 525, 526, 525, 525, 524, 523, 523, 523, 522, 522, 522, 521, 521, 521, 522, 521, 520, 520, 519, 519, 519, 519, 520, 519, 518, 519, 519, 519, 519, 519, 519, 519, 520, 521, 520, 520, 521, 520, 521, 520, 521, 521, 522, 523, 523, 524, 524, 524, 527, 528, 528, 529, 529, 530, 531, 532, 532, 533, 533, 534, 536, 535, 537, 535, 538, 539, 540, 543, 542, 544, 545, 545, 549, 550, 555, 552, 550, 551, 552, 552, 551, 552, 556, 556, 558, 556, 557, 560, 565, 568, 572, 573, 581, 573, 578, 578, 587, 580, 586, 581, 595, 597, 600, 593, 603, 606, 600, 614, 633, 632, 641, 627, 647, 646, 647, 686, 680, 695, 710, 726, 747, 753, 750, 748, 739, 802, 761, 779, 772, 846, 820, 868, 882, 880, 905, 849, 905, 936, 967, 945, 953, 985, 1004, 978, 999, 938, 1013, 935, 991, 1033, 1004, 954, 984, 1052, 993, 1074, 1109, 1086, 1130, 1077, 1075, 1051, 1077, 1128, 1134, 1168, 1177, 1134, 1182, 1212, 1230, 1169, 1231, 1274, 1251, 1301, 1293, 1303, 1334, 1319, 1340, 1353, 1331, 1349, 1340, 1357, 1344, 1350, 1397, 1378, 1366, 1371, 1372, 1395, 1398, 1394, 1391, 1404, 1406, 1406, 1409, 1414, 1418, 1423, 1426, 1447, 1286, 1248, 1288, 1266, 1399, 1342, 1422, 1464, 1464, 1462, 1449, 1226, 1128, 1111, 1112, 1110, 1110, 1110, 1110, 1110, 1110, 1110, 1110, 1110, 1110, 1110, 1110, 1110, 1110, 1110, 1110, 1110, 1110, 1110, 1110, 1110, 1111, 1111, 1111, 1112, 1111, 1112, 1115, 1113, 1145, 1153, 1163, 1248, 1793, 1828, 1772, 1700, 1847, 1842, 1887, 1885, 1866, 1886, 1885, 1888, 1888, 1889, 1888, 1889, 1889, 1889, 1889, 1889, 1890, 1890, 1890, 1890, 1890, 1890, 1887, 1887, 1887, 1887, 1887, 1885, 1885, 1885, 1885, 1884, 1884, 1883, 1884, 1882, 1882, 1882, 1882, 1881, 1881, 1881, 1881, 1881, 1881, 1881, 1881, 1881, 1881, 1881, 1881, 1881, 1881, 1881, 1881, 1882, 1882, 1882, 1881, 1881, 1881, 1894, 1892, 1898, 1898, 1899, 1903, 1904, 1904, 1904, 1905, 1905, 1906, 1907, 1906, 1906, 1905, 1906, 1909, 1912, 1911, 1912, 1909, 1907, 1906, 1907, 1908, 1906, 1919, 1918, 1925, 1925, 1926, 1926, 1926, 1926, 1925, 1926, 1926, 1925, 1925, 1926, 1926, 1926,
       1236, 1232, 1228, 1226, 1217, 1219, 1216, 1208, 1199, 1200, 1195, 1194, 1190, 1188, 1185, 1184, 1179, 1177, 1172, 1169, 1168, 1164, 1156, 1155, 1148, 1147, 1141, 1137, 1135, 1131, 1127, 1122, 1118, 1116, 1112, 1110, 1108, 1106, 1104, 1102, 1100, 1099, 1098, 1096, 1093, 1092, 1091, 1089, 1087, 1086, 1084, 1083, 1081, 1080, 1078, 1076, 1075, 1074, 1073, 1072, 1071, 1070, 1068, 1068, 1066, 1066, 1065, 1065, 1063, 1062, 1062, 1060, 1059, 1058, 1057, 1057, 1055, 1056, 1053, 1051, 1054, 1053, 1049, 1046, 1042, 1043, 1039, 1040, 1037, 1037, 1028, 1031, 1033, 1034, 1028, 1027, 1027, 1025, 1023, 1007, 1014, 988, 996, 979, 955, 977, 962, 983, 972, 962, 944, 955, 943, 953, 912, 944, 888, 903, 922, 924, 879, 886, 820, 861, 875, 867, 858, 845, 826, 827, 789, 815, 758, 760, 714, 709, 693, 700, 680, 679, 665, 642, 634, 647, 632, 621, 606, 599, 597, 589, 588, 577, 574, 572, 565, 566, 559, 559, 558, 551, 551, 549, 546, 545, 541, 539, 539, 537, 536, 536, 532, 532, 529, 528, 527, 527, 525, 527, 525, 525, 524, 523, 524, 524, 522, 523, 522, 521, 521, 521, 522, 521, 520, 520, 519, 520, 519, 519, 520, 519, 519, 519, 520, 519, 519, 519, 519, 519, 520, 521, 520, 520, 521, 520, 521, 520, 522, 521, 524, 524, 523, 524, 526, 525, 527, 528, 529, 529, 529, 531, 531, 533, 533, 534, 533, 535, 537, 537, 539, 536, 539, 539, 540, 544, 542, 544, 545, 548, 551, 552, 556, 553, 550, 551, 552, 553, 554, 554, 557, 558, 566, 560, 568, 561, 565, 570, 573, 574, 582, 582, 582, 583, 589, 580, 587, 592, 595, 598, 601, 595, 605, 607, 607, 614, 637, 633, 642, 650, 648, 653, 648, 689, 681, 708, 711, 727, 749, 759, 751, 753, 741, 805, 767, 783, 773, 855, 830, 870, 888, 885, 926, 855, 908, 946, 977, 948, 957, 990, 1010, 997, 1002, 1013, 1014, 1011, 993, 1036, 1005, 1015, 998, 1053, 995, 1076, 1117, 1088, 1134, 1082, 1076, 1053, 1081, 1134, 1138, 1170, 1179, 1218, 1212, 1229, 1234, 1267, 1234, 1275, 1253, 1319, 1296, 1313, 1335, 1320, 1341, 1353, 1333, 1360, 1356, 1358, 1345, 1352, 1398, 1379, 1368, 1371, 1373, 1395, 1400, 1401, 1404, 1406, 1407, 1409, 1411, 1417, 1418, 1423, 1427, 1443, 1448, 1249, 1290, 1370, 1427, 1466, 1426, 1466, 1464, 1464, 1452, 1245, 1122, 1111, 1112, 1110, 1110, 1110, 1110, 1110, 1110, 1110, 1110, 1110, 1110, 1110, 1110, 1110, 1110, 1110, 1110, 1110, 1110, 1110, 1110, 1110, 1110, 1111, 1111, 1112, 1111, 1112, 1115, 1136, 1145, 1154, 1155, 1291, 1791, 1828, 1750, 1696, 1846, 1804, 1872, 1884, 1865, 1886, 1874, 1876, 1888, 1888, 1888, 1889, 1889, 1889, 1889, 1889, 1890, 1890, 1890, 1890, 1890, 1890, 1887, 1887, 1887, 1887, 1887, 1885, 1886, 1886, 1885, 1884, 1884, 1883, 1884, 1882, 1882, 1882, 1882, 1881, 1881, 1881, 1881, 1881, 1881, 1881, 1881, 1881, 1881, 1881, 1881, 1881, 1881, 1881, 1882, 1882, 1882, 1882, 1881, 1881, 1881, 1894, 1897, 1901, 1901, 1902, 1903, 1904, 1904, 1904, 1905, 1905, 1906, 1907, 1906, 1906, 1906, 1906, 1911, 1912, 1911, 1912, 1909, 1907, 1903, 1905, 1908, 1906, 1919, 1918, 1925, 1926, 1926, 1926, 1926, 1926, 1925, 1926, 1926, 1926, 1926, 1926, 1926, 1926,
       1235, 1232, 1227, 1226, 1215, 1216, 1216, 1208, 1199, 1199, 1195, 1193, 1189, 1188, 1185, 1184, 1179, 1177, 1171, 1169, 1168, 1164, 1156, 1155, 1148, 1146, 1141, 1137, 1134, 1131, 1127, 1122, 1120, 1117, 1113, 1110, 1108, 1106, 1104, 1102, 1100, 1099, 1097, 1096, 1093, 1092, 1091, 1089, 1087, 1086, 1084, 1083, 1081, 1080, 1078, 1076, 1075, 1074, 1073, 1072, 1071, 1070, 1068, 1067, 1065, 1065, 1065, 1064, 1063, 1061, 1061, 1060, 1059, 1057, 1057, 1057, 1055, 1055, 1053, 1051, 1054, 1052, 1048, 1046, 1041, 1043, 1039, 1040, 1036, 1034, 1028, 1031, 1032, 1034, 1028, 1027, 1026, 1024, 1012, 1007, 1013, 986, 996, 978, 954, 972, 961, 982, 971, 949, 943, 948, 943, 950, 897, 935, 870, 902, 918, 923, 874, 841, 802, 860, 864, 851, 856, 812, 824, 826, 782, 814, 758, 759, 690, 709, 692, 700, 680, 679, 643, 641, 633, 645, 631, 621, 604, 593, 597, 589, 587, 575, 574, 571, 564, 566, 559, 559, 558, 551, 552, 549, 546, 545, 541, 540, 539, 537, 537, 536, 533, 532, 529, 529, 527, 527, 525, 527, 525, 525, 525, 523, 524, 524, 523, 523, 522, 522, 521, 521, 522, 521, 521, 520, 519, 521, 519, 519, 520, 519, 519, 519, 520, 519, 519, 519, 519, 519, 520, 521, 521, 520, 521, 521, 522, 520, 522, 522, 524, 524, 526, 528, 526, 526, 527, 529, 529, 531, 530, 532, 532, 533, 533, 534, 535, 537, 538, 538, 540, 536, 540, 540, 541, 544, 543, 545, 546, 549, 551, 552, 557, 553, 551, 555, 556, 557, 556, 554, 559, 562, 567, 568, 569, 562, 566, 571, 574, 576, 583, 584, 586, 583, 593, 581, 591, 593, 597, 599, 601, 596, 611, 608, 608, 616, 638, 634, 652, 654, 651, 655, 652, 696, 681, 709, 714, 729, 759, 761, 782, 772, 741, 807, 790, 783, 775, 857, 849, 872, 901, 895, 930, 878, 956, 955, 980, 953, 961, 994, 1016, 1002, 1008, 1063, 1037, 1013, 1072, 1038, 1007, 1022, 1022, 1055, 998, 1078, 1125, 1093, 1135, 1088, 1077, 1062, 1134, 1157, 1146, 1187, 1179, 1227, 1230, 1231, 1247, 1267, 1236, 1280, 1254, 1320, 1297, 1322, 1341, 1367, 1342, 1356, 1334, 1370, 1360, 1358, 1345, 1383, 1398, 1382, 1371, 1376, 1384, 1396, 1406, 1407, 1408, 1408, 1410, 1409, 1412, 1417, 1419, 1423, 1427, 1427, 1447, 1266, 1296, 1459, 1429, 1466, 1452, 1466, 1464, 1466, 1465, 1466, 1460, 1352, 1217, 1158, 1110, 1110, 1110, 1110, 1110, 1110, 1110, 1110, 1110, 1110, 1110, 1110, 1110, 1110, 1110, 1110, 1110, 1110, 1110, 1110, 1110, 1111, 1111, 1111, 1111, 1112, 1117, 1136, 1172, 1156, 1153, 1401, 1789, 1811, 1716, 1685, 1835, 1669, 1871, 1887, 1865, 1886, 1873, 1872, 1886, 1888, 1888, 1889, 1889, 1889, 1889, 1889, 1889, 1890, 1890, 1890, 1888, 1888, 1888, 1887, 1887, 1887, 1887, 1885, 1886, 1886, 1885, 1884, 1884, 1884, 1884, 1882, 1882, 1882, 1882, 1882, 1881, 1881, 1881, 1881, 1881, 1881, 1881, 1881, 1881, 1881, 1881, 1881, 1881, 1881, 1882, 1882, 1882, 1882, 1881, 1881, 1881, 1895, 1897, 1901, 1904, 1903, 1904, 1904, 1904, 1904, 1905, 1905, 1906, 1906, 1906, 1907, 1907, 1908, 1911, 1912, 1910, 1909, 1906, 1906, 1906, 1905, 1907, 1905, 1920, 1925, 1925, 1927, 1926, 1926, 1926, 1926, 1925, 1926, 1926, 1926, 1926, 1926, 1926, 1926,
       1234, 1232, 1226, 1226, 1215, 1216, 1214, 1206, 1199, 1198, 1194, 1193, 1189, 1187, 1184, 1184, 1179, 1176, 1171, 1168, 1168, 1164, 1156, 1154, 1148, 1146, 1141, 1137, 1134, 1130, 1126, 1121, 1120, 1117, 1113, 1110, 1108, 1106, 1104, 1102, 1100, 1099, 1097, 1096, 1093, 1092, 1091, 1089, 1088, 1086, 1084, 1083, 1081, 1080, 1078, 1076, 1075, 1074, 1073, 1072, 1071, 1070, 1068, 1067, 1065, 1064, 1065, 1064, 1062, 1061, 1061, 1060, 1059, 1057, 1057, 1057, 1055, 1054, 1053, 1051, 1053, 1052, 1048, 1046, 1041, 1042, 1037, 1039, 1035, 1032, 1026, 1031, 1031, 1033, 1028, 1026, 1026, 1024, 1010, 1006, 1011, 977, 995, 975, 952, 971, 959, 938, 957, 936, 939, 936, 938, 947, 896, 934, 864, 877, 915, 891, 838, 840, 792, 847, 853, 850, 837, 810, 812, 752, 780, 814, 747, 711, 689, 704, 679, 696, 678, 679, 640, 640, 632, 628, 628, 620, 604, 591, 596, 589, 587, 575, 573, 571, 563, 562, 559, 559, 558, 551, 552, 549, 547, 547, 541, 540, 539, 537, 537, 536, 533, 532, 529, 529, 528, 527, 525, 527, 525, 526, 525, 524, 524, 524, 523, 523, 522, 522, 522, 521, 522, 521, 521, 520, 520, 521, 519, 520, 520, 519, 520, 520, 520, 520, 519, 519, 520, 520, 521, 521, 521, 521, 521, 521, 522, 523, 523, 522, 524, 526, 527, 529, 527, 527, 527, 529, 530, 531, 531, 532, 532, 534, 535, 535, 536, 537, 538, 539, 540, 537, 541, 541, 541, 545, 545, 545, 547, 549, 552, 553, 557, 554, 551, 556, 558, 558, 557, 558, 560, 563, 567, 568, 570, 563, 567, 572, 575, 577, 585, 589, 588, 584, 594, 587, 593, 593, 597, 602, 602, 597, 611, 623, 610, 627, 640, 659, 652, 654, 652, 660, 653, 698, 698, 722, 715, 743, 762, 773, 783, 777, 742, 809, 791, 802, 776, 861, 851, 882, 903, 901, 935, 881, 958, 966, 983, 956, 963, 1000, 1022, 1023, 1021, 1065, 1039, 1018, 1075, 1081, 1013, 1023, 1043, 1061, 1000, 1080, 1129, 1096, 1152, 1154, 1105, 1063, 1135, 1158, 1147, 1187, 1182, 1228, 1233, 1233, 1259, 1267, 1237, 1284, 1258, 1321, 1318, 1324, 1342, 1368, 1380, 1363, 1335, 1372, 1360, 1369, 1390, 1384, 1398, 1383, 1382, 1399, 1389, 1402, 1408, 1410, 1411, 1408, 1411, 1412, 1412, 1417, 1420, 1423, 1427, 1427, 1442, 1448, 1425, 1459, 1431, 1466, 1466, 1466, 1466, 1466, 1466, 1466, 1465, 1353, 1226, 1189, 1215, 1110, 1110, 1110, 1110, 1110, 1110, 1110, 1110, 1110, 1110, 1110, 1110, 1110, 1110, 1110, 1110, 1110, 1110, 1110, 1110, 1111, 1111, 1110, 1111, 1112, 1117, 1136, 1184, 1154, 1131, 1368, 1367, 1811, 1709, 1662, 1834, 1640, 1841, 1887, 1863, 1885, 1872, 1856, 1885, 1886, 1888, 1888, 1888, 1889, 1889, 1889, 1890, 1890, 1890, 1890, 1889, 1889, 1888, 1887, 1887, 1887, 1887, 1885, 1886, 1886, 1885, 1884, 1884, 1884, 1884, 1883, 1882, 1882, 1882, 1882, 1882, 1882, 1881, 1881, 1881, 1881, 1881, 1881, 1881, 1881, 1881, 1881, 1881, 1881, 1881, 1882, 1882, 1882, 1882, 1881, 1882, 1895, 1897, 1901, 1903, 1903, 1904, 1904, 1905, 1905, 1905, 1905, 1906, 1906, 1906, 1907, 1907, 1908, 1909, 1912, 1914, 1909, 1906, 1907, 1902, 1905, 1907, 1906, 1920, 1925, 1927, 1927, 1926, 1927, 1927, 1926, 1925, 1926, 1926, 1926, 1927, 1927, 1926, 1926,
       1233, 1227, 1226, 1225, 1214, 1215, 1209, 1205, 1198, 1198, 1193, 1193, 1189, 1187, 1184, 1184, 1179, 1176, 1171, 1168, 1167, 1164, 1156, 1154, 1148, 1146, 1141, 1137, 1134, 1130, 1126, 1121, 1120, 1117, 1113, 1110, 1108, 1106, 1104, 1102, 1100, 1098, 1097, 1096, 1093, 1092, 1091, 1089, 1088, 1086, 1083, 1083, 1081, 1080, 1078, 1076, 1075, 1074, 1073, 1072, 1070, 1069, 1067, 1067, 1065, 1064, 1064, 1063, 1062, 1060, 1061, 1060, 1058, 1057, 1056, 1055, 1054, 1054, 1052, 1050, 1053, 1043, 1048, 1045, 1041, 1041, 1037, 1036, 1034, 1032, 1025, 1028, 1031, 1033, 1028, 1025, 1017, 1024, 1010, 1004, 1009, 976, 994, 965, 950, 965, 942, 937, 956, 934, 933, 935, 935, 946, 893, 933, 840, 864, 895, 890, 834, 840, 789, 833, 853, 847, 837, 743, 808, 720, 765, 726, 696, 711, 688, 702, 677, 694, 642, 679, 638, 639, 631, 612, 625, 617, 603, 589, 595, 587, 579, 574, 573, 563, 563, 562, 559, 559, 558, 550, 553, 549, 547, 547, 541, 540, 539, 537, 537, 536, 533, 532, 530, 529, 528, 528, 525, 527, 525, 526, 525, 524, 524, 524, 523, 523, 522, 523, 522, 521, 522, 521, 521, 520, 520, 521, 519, 520, 520, 519, 520, 520, 520, 520, 520, 519, 520, 520, 521, 521, 521, 521, 522, 521, 523, 525, 523, 524, 525, 526, 527, 529, 528, 527, 530, 530, 530, 531, 532, 533, 532, 534, 535, 536, 536, 538, 539, 541, 541, 537, 543, 541, 542, 545, 546, 547, 548, 550, 553, 553, 558, 554, 552, 557, 558, 559, 557, 558, 562, 564, 568, 568, 571, 574, 568, 572, 576, 578, 586, 590, 589, 587, 594, 594, 595, 599, 598, 606, 603, 599, 618, 624, 614, 633, 645, 661, 656, 655, 658, 661, 655, 706, 699, 723, 716, 750, 765, 787, 786, 782, 801, 811, 815, 885, 781, 879, 853, 923, 906, 903, 940, 886, 972, 967, 987, 967, 965, 1001, 1024, 1034, 1023, 1067, 1045, 1038, 1081, 1086, 1016, 1023, 1044, 1105, 1134, 1081, 1135, 1098, 1153, 1155, 1108, 1108, 1149, 1159, 1151, 1191, 1201, 1228, 1233, 1233, 1265, 1269, 1243, 1286, 1259, 1324, 1320, 1329, 1344, 1369, 1382, 1384, 1380, 1372, 1366, 1369, 1390, 1384, 1402, 1385, 1384, 1400, 1391, 1404, 1408, 1410, 1412, 1409, 1411, 1413, 1413, 1417, 1420, 1425, 1427, 1428, 1429, 1446, 1457, 1459, 1454, 1466, 1466, 1466, 1466, 1466, 1466, 1466, 1465, 1465, 1247, 1187, 1339, 1111, 1110, 1110, 1110, 1110, 1110, 1110, 1110, 1110, 1110, 1110, 1110, 1110, 1110, 1110, 1110, 1110, 1110, 1110, 1110, 1111, 1110, 1110, 1111, 1112, 1114, 1136, 1114, 1153, 1124, 1126, 1142, 1410, 1701, 1655, 1822, 1604, 1840, 1853, 1861, 1877, 1871, 1851, 1885, 1886, 1888, 1888, 1886, 1889, 1889, 1890, 1890, 1890, 1890, 1889, 1889, 1889, 1888, 1887, 1887, 1887, 1887, 1885, 1886, 1886, 1885, 1884, 1884, 1884, 1884, 1883, 1882, 1882, 1882, 1882, 1882, 1882, 1881, 1881, 1881, 1881, 1881, 1881, 1881, 1881, 1881, 1881, 1881, 1881, 1881, 1882, 1882, 1882, 1882, 1883, 1882, 1896, 1897, 1900, 1899, 1903, 1901, 1904, 1905, 1905, 1905, 1905, 1906, 1906, 1906, 1907, 1906, 1907, 1909, 1910, 1909, 1909, 1911, 1902, 1903, 1904, 1907, 1906, 1921, 1927, 1927, 1927, 1927, 1927, 1927, 1927, 1926, 1927, 1927, 1927, 1927, 1927, 1927, 1927,
       1232, 1226, 1224, 1218, 1214, 1213, 1208, 1203, 1198, 1197, 1192, 1191, 1188, 1187, 1184, 1184, 1178, 1176, 1168, 1168, 1166, 1164, 1156, 1154, 1147, 1146, 1141, 1136, 1133, 1130, 1126, 1121, 1119, 1117, 1114, 1110, 1108, 1106, 1104, 1102, 1100, 1098, 1097, 1096, 1093, 1092, 1091, 1089, 1087, 1085, 1083, 1083, 1081, 1080, 1078, 1076, 1075, 1074, 1073, 1072, 1070, 1069, 1067, 1066, 1065, 1064, 1064, 1062, 1062, 1060, 1061, 1059, 1057, 1055, 1056, 1055, 1054, 1053, 1052, 1050, 1043, 1043, 1044, 1044, 1041, 1040, 1036, 1036, 1031, 1030, 1023, 1028, 1030, 1033, 1027, 1025, 1015, 1023, 1010, 1003, 1008, 965, 993, 960, 949, 923, 937, 936, 955, 933, 932, 934, 930, 944, 892, 933, 839, 856, 894, 863, 827, 827, 774, 803, 851, 839, 822, 743, 801, 703, 722, 726, 696, 691, 686, 700, 676, 648, 641, 658, 631, 634, 631, 604, 625, 616, 603, 586, 594, 587, 579, 573, 573, 562, 563, 562, 559, 559, 558, 550, 553, 549, 547, 547, 548, 540, 539, 537, 537, 536, 533, 532, 530, 529, 529, 528, 528, 527, 525, 526, 526, 524, 525, 524, 523, 523, 523, 523, 522, 521, 522, 521, 521, 521, 520, 521, 520, 520, 520, 520, 520, 520, 520, 520, 520, 520, 520, 521, 521, 521, 521, 522, 522, 521, 523, 526, 524, 524, 526, 526, 527, 529, 528, 529, 530, 530, 532, 531, 532, 533, 533, 535, 535, 537, 538, 538, 539, 542, 541, 539, 544, 542, 543, 546, 547, 547, 548, 550, 554, 554, 558, 555, 552, 557, 559, 563, 558, 559, 563, 565, 568, 569, 572, 575, 568, 573, 577, 580, 588, 591, 589, 588, 595, 597, 598, 600, 605, 609, 604, 628, 620, 626, 621, 640, 650, 661, 669, 673, 660, 665, 657, 711, 709, 725, 717, 754, 768, 790, 786, 821, 858, 813, 822, 891, 784, 884, 855, 924, 910, 909, 955, 887, 976, 977, 993, 987, 973, 1011, 1031, 1055, 1026, 1068, 1049, 1043, 1085, 1098, 1056, 1107, 1113, 1118, 1140, 1083, 1137, 1100, 1156, 1160, 1110, 1108, 1150, 1183, 1166, 1237, 1203, 1233, 1234, 1236, 1266, 1269, 1259, 1288, 1263, 1325, 1320, 1337, 1346, 1370, 1383, 1385, 1382, 1380, 1371, 1370, 1390, 1385, 1403, 1386, 1388, 1404, 1393, 1404, 1409, 1411, 1412, 1409, 1417, 1414, 1414, 1419, 1422, 1425, 1427, 1428, 1429, 1431, 1456, 1459, 1455, 1466, 1466, 1466, 1466, 1466, 1466, 1466, 1465, 1465, 1458, 1187, 1345, 1111, 1110, 1110, 1110, 1110, 1110, 1110, 1110, 1110, 1110, 1110, 1110, 1110, 1110, 1110, 1110, 1110, 1110, 1110, 1110, 1110, 1110, 1110, 1111, 1110, 1112, 1136, 1113, 1182, 1124, 1126, 1131, 1384, 1699, 1653, 1818, 1601, 1815, 1853, 1857, 1862, 1869, 1849, 1880, 1886, 1888, 1889, 1885, 1889, 1889, 1890, 1890, 1889, 1889, 1889, 1889, 1889, 1888, 1887, 1887, 1887, 1887, 1886, 1886, 1885, 1885, 1884, 1884, 1884, 1884, 1883, 1882, 1882, 1882, 1882, 1882, 1882, 1881, 1883, 1881, 1881, 1881, 1881, 1881, 1881, 1881, 1881, 1881, 1881, 1881, 1882, 1882, 1882, 1883, 1885, 1892, 1896, 1897, 1900, 1899, 1902, 1900, 1904, 1904, 1904, 1905, 1905, 1905, 1905, 1906, 1907, 1906, 1907, 1909, 1909, 1909, 1909, 1910, 1911, 1911, 1904, 1902, 1906, 1921, 1927, 1927, 1927, 1927, 1927, 1927, 1927, 1926, 1927, 1927, 1927, 1927, 1927, 1927, 1927,
       1230, 1225, 1223, 1215, 1213, 1213, 1208, 1203, 1198, 1196, 1192, 1190, 1188, 1186, 1183, 1183, 1178, 1175, 1168, 1167, 1166, 1164, 1156, 1154, 1147, 1146, 1140, 1136, 1132, 1129, 1126, 1121, 1119, 1117, 1114, 1111, 1108, 1108, 1105, 1102, 1099, 1098, 1097, 1096, 1093, 1092, 1090, 1089, 1087, 1085, 1083, 1083, 1081, 1080, 1078, 1076, 1074, 1073, 1073, 1072, 1070, 1069, 1067, 1066, 1065, 1064, 1064, 1062, 1062, 1059, 1061, 1059, 1056, 1055, 1055, 1054, 1053, 1053, 1052, 1049, 1043, 1042, 1044, 1044, 1040, 1038, 1035, 1036, 1030, 1030, 1022, 1026, 1029, 1033, 1013, 1024, 1015, 990, 1009, 1002, 1006, 963, 992, 949, 948, 909, 932, 922, 932, 926, 930, 928, 928, 944, 892, 931, 837, 851, 846, 835, 823, 826, 772, 800, 808, 837, 728, 735, 800, 694, 722, 726, 652, 691, 684, 699, 669, 646, 638, 638, 604, 625, 630, 604, 592, 614, 602, 585, 594, 586, 579, 572, 572, 562, 563, 562, 559, 559, 558, 550, 553, 549, 547, 547, 548, 542, 540, 537, 537, 536, 533, 532, 530, 529, 529, 528, 528, 527, 526, 526, 526, 524, 525, 524, 523, 524, 523, 523, 522, 521, 523, 521, 521, 521, 520, 521, 520, 520, 521, 520, 520, 520, 520, 520, 520, 520, 521, 521, 522, 521, 521, 522, 523, 521, 523, 526, 525, 527, 527, 527, 527, 529, 529, 530, 530, 530, 532, 532, 533, 533, 533, 535, 536, 538, 538, 539, 539, 542, 542, 539, 545, 542, 543, 546, 548, 548, 549, 551, 554, 555, 559, 555, 553, 558, 559, 564, 565, 567, 566, 565, 570, 571, 573, 575, 569, 574, 577, 581, 589, 592, 594, 593, 598, 601, 599, 601, 607, 611, 605, 633, 622, 629, 651, 642, 651, 663, 670, 681, 661, 666, 659, 711, 718, 725, 717, 758, 769, 792, 789, 824, 861, 814, 828, 896, 873, 904, 857, 934, 917, 915, 958, 1001, 983, 980, 996, 996, 1025, 1014, 1035, 1057, 1029, 1100, 1050, 1062, 1086, 1101, 1091, 1155, 1131, 1120, 1147, 1098, 1140, 1130, 1156, 1162, 1130, 1178, 1157, 1185, 1170, 1238, 1221, 1234, 1235, 1276, 1267, 1271, 1260, 1292, 1324, 1326, 1323, 1342, 1347, 1370, 1383, 1386, 1382, 1387, 1375, 1372, 1391, 1386, 1403, 1388, 1389, 1405, 1393, 1406, 1410, 1411, 1416, 1412, 1417, 1415, 1416, 1420, 1423, 1426, 1428, 1428, 1429, 1431, 1451, 1459, 1464, 1466, 1466, 1466, 1466, 1466, 1466, 1466, 1466, 1463, 1357, 1188, 1345, 1111, 1111, 1110, 1110, 1110, 1110, 1110, 1110, 1110, 1110, 1110, 1110, 1110, 1110, 1110, 1110, 1110, 1110, 1110, 1110, 1110, 1110, 1110, 1111, 1110, 1111, 1125, 1113, 1113, 1124, 1125, 1130, 1198, 1668, 1589, 1326, 1598, 1814, 1852, 1856, 1855, 1803, 1765, 1880, 1885, 1874, 1872, 1885, 1888, 1889, 1890, 1890, 1889, 1889, 1889, 1889, 1889, 1889, 1887, 1887, 1887, 1886, 1886, 1887, 1885, 1885, 1884, 1884, 1884, 1884, 1883, 1883, 1882, 1882, 1882, 1882, 1882, 1881, 1881, 1881, 1881, 1881, 1881, 1881, 1881, 1881, 1881, 1881, 1881, 1881, 1881, 1882, 1882, 1884, 1885, 1892, 1894, 1897, 1899, 1899, 1901, 1900, 1904, 1902, 1904, 1905, 1905, 1905, 1907, 1907, 1907, 1907, 1907, 1909, 1909, 1909, 1909, 1910, 1910, 1912, 1904, 1917, 1917, 1921, 1927, 1927, 1927, 1927, 1927, 1927, 1927, 1926, 1927, 1927, 1927, 1927, 1927, 1927, 1927,
       1229, 1225, 1223, 1214, 1212, 1212, 1207, 1203, 1195, 1195, 1191, 1189, 1187, 1185, 1183, 1183, 1177, 1175, 1168, 1167, 1166, 1161, 1155, 1154, 1146, 1144, 1139, 1136, 1132, 1129, 1125, 1121, 1119, 1117, 1114, 1111, 1109, 1108, 1105, 1102, 1099, 1098, 1097, 1096, 1093, 1092, 1090, 1088, 1087, 1085, 1083, 1082, 1080, 1080, 1078, 1076, 1074, 1072, 1072, 1071, 1070, 1069, 1067, 1065, 1065, 1064, 1063, 1061, 1061, 1058, 1060, 1059, 1056, 1055, 1055, 1054, 1053, 1052, 1050, 1049, 1043, 1041, 1043, 1044, 1039, 1038, 1035, 1035, 1030, 1029, 1020, 1026, 1029, 1032, 1008, 1024, 1014, 989, 1007, 976, 1005, 960, 982, 946, 948, 906, 930, 912, 926, 918, 930, 927, 918, 944, 891, 913, 835, 829, 846, 835, 819, 823, 771, 798, 802, 701, 726, 717, 799, 682, 699, 673, 650, 690, 656, 697, 668, 638, 637, 616, 603, 622, 619, 591, 590, 614, 601, 584, 594, 585, 579, 572, 571, 562, 560, 561, 558, 559, 558, 550, 553, 549, 546, 547, 545, 542, 540, 538, 537, 536, 533, 533, 530, 530, 529, 528, 528, 527, 526, 526, 526, 524, 525, 525, 524, 524, 523, 523, 522, 521, 523, 521, 521, 521, 520, 521, 520, 520, 521, 520, 520, 520, 521, 521, 521, 520, 521, 522, 522, 523, 522, 523, 523, 521, 524, 526, 525, 527, 527, 527, 528, 529, 529, 530, 531, 531, 532, 532, 533, 534, 534, 536, 536, 539, 541, 539, 540, 543, 543, 542, 546, 543, 545, 547, 548, 548, 549, 551, 555, 556, 559, 556, 554, 559, 559, 564, 566, 569, 571, 570, 571, 573, 575, 576, 573, 577, 580, 581, 589, 592, 597, 594, 599, 602, 601, 602, 622, 618, 627, 634, 623, 629, 653, 643, 653, 664, 673, 682, 666, 674, 669, 715, 720, 726, 718, 761, 782, 794, 795, 836, 866, 816, 830, 898, 896, 910, 863, 935, 925, 918, 969, 1021, 986, 989, 1019, 999, 1027, 1032, 1041, 1058, 1041, 1109, 1054, 1064, 1088, 1113, 1149, 1158, 1133, 1122, 1150, 1105, 1149, 1132, 1174, 1171, 1132, 1193, 1158, 1185, 1173, 1242, 1224, 1237, 1255, 1276, 1268, 1294, 1261, 1292, 1337, 1329, 1325, 1343, 1347, 1371, 1384, 1386, 1382, 1387, 1378, 1402, 1399, 1387, 1404, 1388, 1391, 1405, 1395, 1407, 1411, 1411, 1416, 1412, 1418, 1415, 1419, 1424, 1423, 1427, 1428, 1428, 1429, 1432, 1429, 1458, 1464, 1466, 1466, 1466, 1466, 1466, 1466, 1466, 1466, 1466, 1349, 1187, 1347, 1117, 1111, 1110, 1110, 1110, 1110, 1110, 1110, 1110, 1110, 1110, 1110, 1110, 1110, 1110, 1110, 1110, 1110, 1110, 1110, 1110, 1110, 1110, 1110, 1110, 1111, 1111, 1112, 1113, 1123, 1125, 1128, 1191, 1644, 1573, 1321, 1425, 1804, 1845, 1833, 1855, 1802, 1743, 1878, 1885, 1873, 1861, 1885, 1888, 1889, 1889, 1889, 1890, 1889, 1889, 1889, 1889, 1889, 1887, 1887, 1887, 1886, 1887, 1887, 1885, 1885, 1884, 1884, 1884, 1884, 1883, 1884, 1882, 1882, 1882, 1882, 1882, 1881, 1881, 1881, 1881, 1881, 1881, 1881, 1881, 1881, 1881, 1881, 1882, 1881, 1882, 1882, 1882, 1884, 1886, 1892, 1893, 1897, 1899, 1899, 1901, 1901, 1904, 1902, 1904, 1905, 1905, 1905, 1907, 1907, 1907, 1907, 1907, 1909, 1909, 1909, 1909, 1910, 1911, 1912, 1910, 1916, 1916, 1911, 1928, 1928, 1928, 1927, 1927, 1927, 1927, 1927, 1927, 1927, 1927, 1927, 1927, 1927, 1927,
       1228, 1222, 1222, 1213, 1211, 1212, 1205, 1202, 1195, 1194, 1191, 1189, 1187, 1185, 1182, 1178, 1177, 1175, 1168, 1166, 1166, 1161, 1155, 1153, 1145, 1143, 1138, 1136, 1132, 1129, 1125, 1121, 1119, 1117, 1114, 1111, 1109, 1108, 1106, 1102, 1099, 1098, 1097, 1095, 1093, 1092, 1090, 1088, 1087, 1084, 1083, 1082, 1080, 1079, 1078, 1076, 1074, 1072, 1071, 1070, 1069, 1068, 1064, 1065, 1064, 1063, 1063, 1061, 1061, 1057, 1060, 1058, 1056, 1055, 1055, 1054, 1053, 1052, 1050, 1048, 1043, 1041, 1043, 1043, 1039, 1037, 1034, 1034, 1030, 1028, 1020, 1024, 1028, 1031, 1008, 1023, 1007, 989, 1006, 957, 951, 958, 981, 943, 947, 901, 929, 911, 920, 916, 926, 914, 872, 934, 839, 892, 830, 828, 843, 740, 806, 822, 766, 769, 797, 700, 725, 716, 790, 680, 695, 673, 646, 673, 655, 697, 666, 636, 635, 615, 601, 621, 617, 591, 585, 592, 596, 583, 594, 585, 579, 571, 571, 560, 560, 561, 558, 558, 558, 548, 553, 549, 546, 547, 545, 542, 541, 538, 537, 536, 533, 533, 530, 530, 529, 528, 529, 527, 526, 526, 526, 525, 525, 525, 525, 524, 523, 523, 522, 521, 523, 521, 521, 521, 520, 521, 520, 520, 521, 520, 521, 521, 521, 521, 521, 521, 521, 522, 522, 523, 522, 523, 523, 522, 524, 526, 526, 527, 527, 527, 528, 530, 529, 531, 531, 531, 532, 533, 533, 534, 534, 537, 536, 539, 541, 540, 540, 543, 544, 542, 546, 544, 545, 549, 549, 549, 550, 552, 558, 557, 560, 556, 555, 560, 560, 566, 567, 570, 572, 571, 573, 573, 576, 583, 573, 579, 584, 583, 592, 594, 599, 595, 599, 603, 602, 609, 622, 626, 633, 634, 627, 631, 656, 644, 654, 669, 674, 683, 668, 680, 670, 716, 736, 728, 718, 762, 788, 796, 797, 838, 872, 818, 831, 900, 934, 930, 926, 936, 932, 923, 974, 1022, 988, 1025, 1030, 1034, 1034, 1034, 1048, 1069, 1083, 1112, 1076, 1065, 1090, 1119, 1156, 1165, 1134, 1123, 1151, 1129, 1151, 1134, 1179, 1174, 1136, 1194, 1159, 1192, 1177, 1244, 1226, 1240, 1257, 1278, 1270, 1296, 1262, 1298, 1342, 1329, 1332, 1345, 1348, 1376, 1384, 1387, 1383, 1389, 1397, 1403, 1406, 1402, 1410, 1391, 1397, 1407, 1397, 1410, 1411, 1411, 1418, 1416, 1418, 1416, 1419, 1424, 1423, 1428, 1428, 1428, 1429, 1432, 1434, 1454, 1465, 1466, 1466, 1466, 1466, 1466, 1466, 1466, 1466, 1466, 1466, 1187, 1397, 1117, 1111, 1110, 1110, 1110, 1110, 1110, 1110, 1110, 1110, 1110, 1110, 1110, 1110, 1110, 1110, 1110, 1110, 1110, 1110, 1110, 1110, 1110, 1110, 1110, 1111, 1111, 1112, 1112, 1123, 1124, 1128, 1165, 1133, 1516, 1319, 1386, 1804, 1845, 1830, 1684, 1783, 1741, 1770, 1773, 1830, 1846, 1885, 1888, 1890, 1890, 1890, 1890, 1889, 1889, 1889, 1889, 1889, 1887, 1889, 1887, 1887, 1887, 1887, 1885, 1885, 1884, 1884, 1884, 1884, 1883, 1884, 1882, 1882, 1882, 1882, 1882, 1881, 1881, 1881, 1881, 1881, 1881, 1881, 1881, 1881, 1881, 1881, 1882, 1881, 1882, 1882, 1882, 1882, 1885, 1892, 1893, 1897, 1899, 1899, 1901, 1901, 1904, 1902, 1904, 1905, 1905, 1905, 1906, 1906, 1907, 1907, 1907, 1909, 1909, 1909, 1912, 1912, 1911, 1912, 1911, 1916, 1915, 1911, 1928, 1928, 1928, 1927, 1927, 1927, 1927, 1927, 1927, 1927, 1927, 1927, 1928, 1928, 1927,
       1226, 1221, 1221, 1211, 1211, 1212, 1204, 1202, 1195, 1194, 1191, 1189, 1186, 1185, 1181, 1178, 1174, 1172, 1167, 1166, 1166, 1159, 1154, 1153, 1145, 1143, 1138, 1135, 1132, 1129, 1125, 1120, 1119, 1117, 1113, 1111, 1109, 1108, 1106, 1102, 1099, 1098, 1097, 1095, 1092, 1092, 1090, 1088, 1087, 1084, 1082, 1082, 1080, 1079, 1078, 1076, 1074, 1072, 1071, 1070, 1069, 1066, 1064, 1065, 1064, 1063, 1063, 1061, 1061, 1057, 1060, 1058, 1056, 1054, 1055, 1054, 1053, 1051, 1050, 1047, 1041, 1040, 1043, 1043, 1038, 1037, 1033, 1034, 1029, 1027, 1018, 1012, 1006, 1031, 1008, 1022, 998, 989, 1006, 956, 948, 950, 951, 937, 944, 895, 927, 909, 918, 914, 899, 902, 870, 934, 837, 871, 790, 815, 842, 738, 805, 751, 761, 766, 797, 700, 723, 715, 692, 679, 694, 673, 645, 672, 654, 697, 662, 635, 634, 614, 600, 617, 616, 590, 585, 591, 584, 581, 588, 579, 579, 571, 570, 560, 559, 561, 557, 558, 558, 548, 553, 549, 544, 544, 545, 542, 541, 538, 538, 536, 533, 533, 531, 530, 529, 528, 529, 527, 526, 526, 526, 526, 525, 525, 525, 524, 524, 523, 522, 521, 523, 522, 521, 521, 521, 521, 521, 520, 521, 520, 521, 521, 521, 521, 521, 521, 521, 522, 522, 523, 523, 523, 524, 522, 525, 527, 526, 527, 528, 527, 528, 530, 529, 532, 531, 531, 533, 534, 534, 534, 535, 537, 537, 539, 542, 541, 541, 543, 544, 543, 547, 544, 546, 549, 553, 550, 551, 556, 560, 558, 563, 558, 556, 561, 560, 566, 567, 570, 573, 572, 575, 578, 577, 583, 574, 582, 585, 590, 594, 595, 604, 597, 602, 603, 603, 617, 623, 628, 634, 640, 634, 632, 657, 646, 657, 671, 678, 685, 669, 706, 728, 718, 737, 729, 774, 765, 789, 801, 846, 838, 873, 821, 832, 902, 936, 940, 928, 937, 936, 926, 976, 1024, 990, 1027, 1037, 1043, 1040, 1039, 1061, 1071, 1084, 1117, 1115, 1082, 1102, 1131, 1160, 1175, 1144, 1124, 1152, 1130, 1156, 1141, 1198, 1183, 1210, 1196, 1162, 1195, 1217, 1246, 1227, 1262, 1258, 1286, 1274, 1296, 1326, 1303, 1343, 1331, 1364, 1356, 1367, 1378, 1386, 1388, 1384, 1395, 1399, 1403, 1406, 1403, 1411, 1394, 1398, 1408, 1397, 1414, 1411, 1412, 1418, 1417, 1420, 1416, 1420, 1425, 1423, 1428, 1429, 1428, 1429, 1432, 1434, 1436, 1466, 1466, 1466, 1466, 1466, 1466, 1466, 1466, 1466, 1466, 1466, 1201, 1398, 1110, 1110, 1110, 1110, 1110, 1110, 1110, 1110, 1110, 1110, 1110, 1110, 1110, 1110, 1110, 1110, 1110, 1110, 1110, 1110, 1110, 1110, 1110, 1110, 1110, 1111, 1111, 1112, 1112, 1117, 1117, 1128, 1144, 1132, 1204, 1315, 1384, 1246, 1288, 1534, 1475, 1689, 1723, 1770, 1697, 1829, 1845, 1890, 1890, 1890, 1890, 1890, 1890, 1889, 1889, 1889, 1889, 1889, 1887, 1889, 1889, 1887, 1887, 1887, 1885, 1885, 1884, 1884, 1884, 1884, 1884, 1883, 1882, 1883, 1882, 1882, 1882, 1882, 1882, 1881, 1881, 1881, 1881, 1881, 1881, 1881, 1882, 1881, 1882, 1881, 1882, 1882, 1882, 1882, 1884, 1883, 1893, 1896, 1899, 1899, 1901, 1902, 1904, 1902, 1904, 1904, 1904, 1905, 1906, 1906, 1907, 1907, 1907, 1910, 1912, 1909, 1912, 1912, 1911, 1912, 1912, 1915, 1910, 1927, 1928, 1928, 1928, 1927, 1927, 1927, 1928, 1928, 1928, 1927, 1927, 1927, 1928, 1928, 1928,
       1225, 1221, 1221, 1211, 1210, 1210, 1199, 1199, 1194, 1193, 1190, 1188, 1186, 1184, 1180, 1169, 1174, 1172, 1167, 1164, 1165, 1159, 1154, 1152, 1145, 1143, 1138, 1135, 1132, 1129, 1125, 1120, 1118, 1117, 1113, 1111, 1108, 1107, 1106, 1102, 1099, 1098, 1097, 1095, 1092, 1092, 1090, 1088, 1087, 1084, 1082, 1082, 1080, 1079, 1077, 1076, 1074, 1072, 1071, 1070, 1068, 1066, 1064, 1064, 1064, 1063, 1063, 1061, 1060, 1057, 1059, 1058, 1055, 1054, 1055, 1054, 1052, 1051, 1050, 1047, 1041, 1040, 1042, 1039, 1038, 1036, 1033, 1034, 1029, 1027, 1016, 1011, 1005, 997, 1006, 1017, 979, 985, 1005, 929, 942, 947, 950, 934, 943, 893, 926, 908, 917, 913, 891, 851, 869, 861, 835, 813, 789, 814, 835, 737, 803, 751, 759, 758, 696, 697, 722, 692, 691, 652, 691, 670, 643, 667, 639, 618, 662, 634, 633, 613, 599, 615, 613, 588, 584, 590, 583, 580, 587, 577, 577, 570, 569, 559, 558, 561, 557, 547, 557, 547, 553, 546, 544, 544, 544, 542, 541, 537, 538, 536, 534, 533, 531, 530, 529, 528, 529, 527, 527, 526, 526, 526, 525, 525, 525, 524, 524, 524, 524, 522, 523, 522, 521, 521, 521, 521, 521, 520, 521, 520, 521, 521, 521, 521, 521, 521, 521, 522, 522, 523, 523, 523, 524, 522, 525, 527, 526, 527, 528, 527, 528, 531, 530, 532, 531, 533, 534, 534, 534, 535, 535, 537, 537, 540, 542, 541, 542, 544, 545, 545, 548, 546, 554, 550, 554, 550, 551, 556, 560, 560, 563, 558, 557, 561, 562, 567, 568, 572, 574, 574, 580, 583, 584, 587, 576, 585, 590, 590, 596, 597, 606, 600, 603, 605, 604, 617, 628, 629, 649, 641, 638, 633, 658, 649, 668, 676, 679, 700, 711, 707, 731, 718, 742, 733, 776, 768, 791, 803, 849, 839, 874, 823, 834, 905, 936, 945, 932, 938, 948, 935, 978, 1040, 1004, 1032, 1038, 1046, 1044, 1056, 1065, 1072, 1090, 1123, 1120, 1090, 1114, 1137, 1165, 1181, 1162, 1125, 1153, 1133, 1161, 1166, 1201, 1188, 1211, 1197, 1179, 1206, 1218, 1248, 1228, 1263, 1262, 1294, 1276, 1298, 1331, 1309, 1345, 1334, 1364, 1356, 1374, 1380, 1387, 1388, 1384, 1396, 1399, 1403, 1407, 1406, 1411, 1395, 1400, 1410, 1398, 1415, 1412, 1413, 1419, 1419, 1420, 1417, 1420, 1425, 1424, 1428, 1429, 1429, 1429, 1432, 1434, 1436, 1451, 1472, 1466, 1466, 1466, 1466, 1466, 1466, 1466, 1466, 1466, 1446, 1398, 1110, 1123, 1115, 1110, 1110, 1110, 1110, 1110, 1110, 1110, 1110, 1110, 1110, 1110, 1110, 1110, 1110, 1110, 1110, 1110, 1110, 1110, 1110, 1110, 1110, 1111, 1111, 1112, 1112, 1117, 1118, 1128, 1145, 1362, 1204, 1320, 1385, 1346, 1304, 1541, 1477, 1689, 1728, 1779, 1825, 1822, 1844, 1890, 1890, 1890, 1890, 1890, 1890, 1889, 1889, 1889, 1889, 1889, 1887, 1889, 1888, 1886, 1887, 1886, 1885, 1885, 1884, 1884, 1884, 1884, 1884, 1883, 1883, 1883, 1882, 1882, 1882, 1882, 1882, 1881, 1881, 1881, 1881, 1881, 1881, 1881, 1882, 1882, 1882, 1881, 1882, 1882, 1882, 1882, 1884, 1883, 1893, 1896, 1899, 1899, 1902, 1899, 1904, 1903, 1904, 1904, 1904, 1905, 1906, 1906, 1907, 1907, 1908, 1910, 1911, 1909, 1912, 1912, 1911, 1912, 1912, 1915, 1910, 1926, 1928, 1928, 1928, 1927, 1927, 1927, 1928, 1928, 1928, 1927, 1927, 1927, 1928, 1928, 1928,
       1225, 1216, 1220, 1210, 1209, 1206, 1198, 1198, 1194, 1193, 1190, 1188, 1184, 1184, 1176, 1168, 1174, 1172, 1167, 1164, 1165, 1159, 1154, 1151, 1145, 1142, 1138, 1135, 1132, 1128, 1125, 1120, 1118, 1117, 1113, 1110, 1108, 1107, 1106, 1102, 1099, 1098, 1097, 1095, 1092, 1092, 1089, 1088, 1087, 1084, 1082, 1082, 1080, 1079, 1077, 1075, 1074, 1071, 1071, 1070, 1068, 1066, 1064, 1064, 1063, 1063, 1063, 1060, 1060, 1057, 1059, 1057, 1055, 1054, 1054, 1053, 1051, 1051, 1049, 1047, 1041, 1039, 1039, 1038, 1037, 1036, 1031, 1033, 1028, 1026, 1016, 1009, 1004, 995, 987, 1011, 976, 985, 1000, 924, 940, 943, 948, 930, 939, 891, 920, 907, 913, 908, 890, 847, 868, 775, 830, 810, 786, 807, 749, 736, 791, 748, 756, 756, 696, 696, 720, 672, 691, 652, 689, 639, 640, 666, 637, 618, 642, 631, 631, 601, 598, 607, 610, 587, 583, 590, 582, 579, 586, 576, 577, 570, 568, 559, 557, 555, 556, 547, 557, 547, 552, 546, 543, 544, 544, 541, 540, 537, 538, 534, 534, 533, 531, 532, 531, 528, 529, 528, 527, 526, 526, 526, 526, 526, 525, 524, 524, 524, 524, 522, 523, 522, 522, 521, 521, 521, 521, 521, 521, 521, 521, 521, 521, 521, 521, 522, 522, 522, 522, 523, 524, 523, 524, 524, 525, 527, 527, 528, 528, 527, 528, 531, 530, 533, 532, 534, 535, 534, 535, 535, 535, 537, 538, 540, 542, 542, 543, 544, 546, 548, 549, 547, 554, 552, 554, 552, 553, 557, 561, 560, 564, 559, 564, 562, 564, 568, 568, 573, 576, 577, 581, 583, 585, 588, 576, 586, 590, 591, 596, 599, 607, 601, 609, 608, 606, 618, 633, 630, 650, 642, 642, 634, 660, 657, 672, 677, 680, 702, 717, 708, 734, 720, 745, 734, 776, 770, 793, 805, 851, 845, 877, 843, 857, 907, 938, 946, 947, 941, 974, 938, 1001, 1043, 1006, 1034, 1051, 1064, 1057, 1073, 1071, 1078, 1093, 1125, 1122, 1091, 1125, 1139, 1173, 1182, 1180, 1190, 1168, 1136, 1170, 1169, 1204, 1191, 1212, 1197, 1183, 1209, 1224, 1249, 1229, 1268, 1279, 1294, 1287, 1299, 1331, 1311, 1347, 1345, 1364, 1357, 1376, 1380, 1387, 1388, 1385, 1396, 1400, 1404, 1407, 1408, 1412, 1410, 1404, 1412, 1400, 1415, 1413, 1413, 1419, 1420, 1420, 1418, 1422, 1428, 1424, 1429, 1429, 1430, 1430, 1433, 1434, 1436, 1439, 1471, 1466, 1466, 1466, 1466, 1466, 1466, 1466, 1466, 1466, 1446, 1398, 1274, 1134, 1115, 1110, 1110, 1110, 1110, 1110, 1110, 1110, 1110, 1110, 1110, 1110, 1110, 1110, 1110, 1110, 1110, 1110, 1110, 1110, 1110, 1110, 1110, 1111, 1111, 1112, 1112, 1117, 1113, 1114, 1153, 1363, 1206, 1350, 1637, 1353, 1344, 1548, 1495, 1693, 1729, 1780, 1826, 1872, 1890, 1890, 1890, 1890, 1890, 1890, 1890, 1889, 1889, 1889, 1889, 1889, 1888, 1886, 1887, 1886, 1886, 1886, 1885, 1885, 1885, 1884, 1884, 1884, 1884, 1883, 1883, 1883, 1882, 1882, 1882, 1882, 1882, 1881, 1881, 1881, 1881, 1881, 1881, 1881, 1882, 1882, 1882, 1882, 1882, 1882, 1882, 1882, 1882, 1883, 1891, 1893, 1899, 1898, 1901, 1899, 1904, 1903, 1904, 1904, 1904, 1905, 1906, 1906, 1907, 1907, 1908, 1908, 1908, 1909, 1911, 1911, 1912, 1912, 1913, 1915, 1914, 1927, 1928, 1928, 1928, 1927, 1928, 1927, 1928, 1928, 1928, 1927, 1927, 1927, 1928, 1928, 1928,
       1218, 1214, 1218, 1208, 1208, 1201, 1198, 1198, 1192, 1192, 1189, 1188, 1184, 1183, 1176, 1168, 1174, 1172, 1166, 1163, 1160, 1157, 1152, 1148, 1145, 1142, 1137, 1135, 1131, 1128, 1125, 1119, 1118, 1116, 1113, 1110, 1108, 1107, 1105, 1102, 1099, 1098, 1097, 1095, 1091, 1091, 1089, 1087, 1087, 1084, 1082, 1082, 1080, 1079, 1076, 1075, 1074, 1071, 1071, 1070, 1068, 1066, 1064, 1064, 1063, 1062, 1062, 1060, 1060, 1056, 1059, 1056, 1055, 1054, 1054, 1052, 1051, 1050, 1048, 1042, 1040, 1039, 1039, 1038, 1037, 1035, 1030, 1032, 1027, 1005, 1008, 1006, 1002, 991, 986, 991, 963, 977, 919, 923, 938, 936, 947, 927, 937, 863, 897, 906, 899, 906, 885, 845, 863, 768, 829, 764, 785, 806, 735, 734, 790, 744, 747, 755, 692, 694, 717, 668, 675, 651, 687, 639, 626, 658, 634, 617, 642, 631, 630, 600, 593, 606, 609, 587, 579, 589, 581, 577, 586, 576, 577, 567, 568, 558, 556, 555, 555, 546, 556, 547, 552, 545, 543, 544, 541, 540, 540, 536, 537, 534, 534, 533, 531, 532, 531, 529, 529, 528, 527, 526, 526, 526, 526, 526, 525, 524, 524, 524, 524, 524, 523, 522, 522, 521, 521, 521, 521, 521, 522, 521, 521, 521, 522, 522, 521, 522, 522, 523, 523, 523, 524, 524, 524, 524, 525, 527, 527, 528, 528, 528, 529, 531, 530, 533, 532, 534, 535, 534, 535, 536, 536, 538, 539, 542, 543, 542, 543, 545, 546, 549, 549, 547, 555, 553, 554, 554, 554, 558, 562, 562, 567, 572, 567, 563, 564, 568, 569, 573, 576, 577, 582, 584, 589, 590, 576, 587, 593, 592, 599, 613, 610, 603, 611, 610, 610, 619, 636, 634, 651, 643, 643, 639, 661, 659, 678, 683, 686, 702, 717, 721, 735, 722, 746, 736, 777, 797, 797, 808, 854, 852, 892, 846, 932, 911, 939, 947, 1002, 942, 975, 970, 1012, 1044, 1013, 1044, 1057, 1068, 1059, 1078, 1074, 1081, 1095, 1128, 1127, 1095, 1131, 1151, 1174, 1190, 1181, 1192, 1169, 1138, 1178, 1174, 1206, 1194, 1213, 1198, 1184, 1214, 1243, 1254, 1233, 1268, 1288, 1295, 1288, 1299, 1331, 1312, 1352, 1346, 1368, 1360, 1378, 1381, 1388, 1388, 1385, 1397, 1402, 1404, 1408, 1408, 1412, 1410, 1411, 1412, 1401, 1416, 1414, 1414, 1422, 1421, 1421, 1418, 1422, 1428, 1425, 1429, 1430, 1430, 1432, 1433, 1434, 1436, 1439, 1468, 1466, 1466, 1466, 1466, 1466, 1466, 1466, 1466, 1466, 1450, 1398, 1274, 1153, 1115, 1110, 1110, 1110, 1110, 1110, 1110, 1110, 1110, 1110, 1110, 1110, 1110, 1110, 1110, 1110, 1110, 1110, 1110, 1110, 1110, 1110, 1110, 1111, 1111, 1111, 1112, 1118, 1116, 1118, 1156, 1363, 1220, 1456, 1616, 1355, 1344, 1551, 1593, 1851, 1729, 1781, 1886, 1890, 1890, 1890, 1890, 1890, 1890, 1890, 1890, 1889, 1889, 1889, 1889, 1889, 1887, 1886, 1887, 1886, 1886, 1886, 1885, 1884, 1885, 1884, 1884, 1884, 1884, 1883, 1883, 1882, 1882, 1882, 1882, 1882, 1882, 1881, 1881, 1881, 1881, 1881, 1881, 1881, 1882, 1882, 1882, 1882, 1882, 1882, 1882, 1882, 1882, 1882, 1883, 1893, 1899, 1898, 1901, 1904, 1904, 1903, 1904, 1904, 1904, 1904, 1905, 1905, 1907, 1908, 1908, 1909, 1910, 1910, 1911, 1911, 1912, 1912, 1913, 1913, 1915, 1924, 1928, 1928, 1928, 1927, 1928, 1927, 1928, 1928, 1928, 1927, 1927, 1927, 1928, 1928, 1927,
       1217, 1214, 1217, 1208, 1207, 1200, 1197, 1197, 1192, 1192, 1188, 1183, 1180, 1182, 1176, 1166, 1173, 1171, 1165, 1161, 1159, 1157, 1152, 1148, 1144, 1142, 1137, 1134, 1131, 1128, 1124, 1119, 1118, 1116, 1112, 1110, 1108, 1107, 1105, 1102, 1099, 1098, 1097, 1095, 1091, 1091, 1089, 1087, 1087, 1083, 1082, 1082, 1080, 1079, 1076, 1074, 1074, 1070, 1071, 1069, 1068, 1065, 1060, 1063, 1062, 1062, 1062, 1060, 1060, 1056, 1059, 1056, 1055, 1053, 1053, 1051, 1051, 1050, 1048, 1041, 1038, 1039, 1036, 1034, 1033, 1035, 1029, 1031, 1026, 1005, 1008, 1005, 999, 991, 985, 988, 962, 974, 914, 922, 934, 934, 947, 925, 935, 858, 896, 889, 898, 905, 884, 845, 846, 767, 812, 763, 779, 805, 733, 730, 785, 742, 729, 739, 690, 693, 715, 653, 674, 650, 682, 627, 625, 658, 634, 617, 642, 630, 630, 599, 592, 605, 604, 586, 577, 589, 581, 575, 567, 567, 564, 567, 557, 557, 556, 555, 554, 546, 556, 547, 547, 545, 543, 543, 541, 540, 540, 536, 537, 534, 534, 533, 531, 532, 532, 529, 529, 528, 527, 527, 526, 526, 526, 526, 525, 524, 525, 525, 524, 524, 523, 522, 523, 523, 521, 521, 521, 521, 522, 522, 522, 522, 522, 522, 522, 522, 522, 523, 523, 524, 524, 525, 524, 526, 526, 527, 527, 528, 529, 528, 529, 532, 531, 533, 532, 535, 535, 535, 535, 537, 540, 538, 540, 542, 545, 543, 543, 545, 546, 549, 550, 548, 555, 553, 555, 554, 554, 558, 562, 564, 567, 572, 567, 563, 565, 569, 572, 576, 578, 580, 585, 585, 589, 592, 607, 596, 597, 606, 599, 615, 611, 604, 613, 618, 625, 620, 637, 635, 652, 656, 643, 639, 662, 659, 680, 684, 687, 704, 719, 727, 740, 724, 751, 737, 777, 799, 798, 813, 856, 859, 907, 889, 954, 916, 956, 950, 1004, 946, 982, 972, 1032, 1046, 1016, 1049, 1059, 1069, 1062, 1082, 1076, 1091, 1106, 1130, 1137, 1121, 1134, 1154, 1176, 1195, 1182, 1195, 1170, 1140, 1182, 1180, 1208, 1203, 1213, 1205, 1229, 1217, 1246, 1255, 1244, 1269, 1291, 1295, 1289, 1309, 1331, 1312, 1352, 1348, 1368, 1361, 1379, 1382, 1389, 1390, 1386, 1397, 1403, 1406, 1409, 1410, 1413, 1411, 1411, 1415, 1419, 1418, 1414, 1414, 1423, 1421, 1422, 1418, 1422, 1429, 1425, 1429, 1430, 1430, 1433, 1433, 1434, 1436, 1439, 1460, 1466, 1466, 1466, 1466, 1466, 1466, 1466, 1466, 1453, 1437, 1398, 1274, 1237, 1116, 1110, 1110, 1110, 1110, 1110, 1110, 1110, 1110, 1110, 1110, 1110, 1110, 1110, 1110, 1110, 1110, 1110, 1110, 1110, 1110, 1110, 1110, 1111, 1111, 1111, 1112, 1118, 1120, 1118, 1160, 1363, 1158, 1452, 1541, 1494, 1725, 1556, 1594, 1816, 1738, 1817, 1890, 1890, 1890, 1890, 1890, 1890, 1890, 1890, 1890, 1889, 1889, 1890, 1889, 1889, 1887, 1886, 1887, 1886, 1886, 1886, 1885, 1884, 1884, 1884, 1884, 1884, 1884, 1883, 1883, 1882, 1882, 1882, 1882, 1882, 1882, 1882, 1882, 1881, 1881, 1881, 1881, 1881, 1882, 1882, 1882, 1882, 1882, 1882, 1882, 1882, 1882, 1882, 1883, 1893, 1899, 1900, 1901, 1904, 1904, 1903, 1904, 1904, 1904, 1906, 1905, 1905, 1907, 1908, 1908, 1909, 1910, 1910, 1911, 1911, 1912, 1910, 1911, 1913, 1915, 1924, 1927, 1927, 1928, 1927, 1928, 1927, 1928, 1928, 1928, 1928, 1927, 1927, 1928, 1928, 1927,
       1217, 1213, 1214, 1207, 1206, 1199, 1196, 1197, 1191, 1191, 1188, 1182, 1179, 1179, 1175, 1166, 1162, 1162, 1165, 1160, 1159, 1156, 1151, 1147, 1144, 1142, 1137, 1134, 1131, 1127, 1124, 1119, 1117, 1116, 1112, 1110, 1108, 1107, 1105, 1101, 1099, 1097, 1097, 1095, 1091, 1091, 1089, 1087, 1087, 1083, 1082, 1082, 1080, 1079, 1076, 1074, 1074, 1070, 1071, 1068, 1068, 1065, 1059, 1062, 1062, 1062, 1062, 1060, 1060, 1055, 1059, 1056, 1054, 1053, 1052, 1051, 1051, 1050, 1042, 1041, 1036, 1039, 1036, 1034, 1031, 1035, 1029, 1031, 1025, 1003, 1007, 1004, 998, 990, 976, 988, 959, 971, 913, 916, 930, 933, 947, 924, 904, 857, 895, 887, 897, 889, 867, 843, 815, 766, 810, 762, 777, 804, 731, 725, 785, 695, 711, 684, 684, 692, 715, 652, 674, 648, 631, 625, 625, 609, 633, 616, 583, 630, 609, 580, 590, 604, 604, 586, 576, 588, 581, 569, 567, 566, 564, 565, 556, 556, 555, 555, 549, 545, 556, 547, 547, 545, 543, 543, 541, 540, 540, 536, 537, 534, 534, 533, 531, 531, 532, 529, 529, 527, 527, 527, 527, 526, 526, 526, 525, 525, 525, 525, 524, 524, 523, 523, 523, 523, 521, 522, 521, 521, 522, 523, 522, 522, 522, 522, 522, 522, 522, 523, 523, 524, 524, 525, 524, 526, 526, 527, 527, 528, 529, 529, 529, 532, 532, 533, 533, 535, 536, 535, 536, 538, 541, 539, 540, 543, 545, 544, 546, 545, 547, 550, 550, 550, 556, 554, 556, 555, 555, 561, 563, 564, 568, 573, 568, 564, 565, 570, 572, 576, 578, 583, 588, 586, 590, 593, 609, 601, 599, 613, 615, 618, 616, 606, 618, 633, 626, 620, 638, 637, 657, 657, 644, 647, 664, 661, 681, 691, 688, 705, 732, 729, 745, 725, 752, 743, 778, 806, 799, 814, 865, 865, 914, 892, 962, 924, 958, 953, 1006, 950, 985, 987, 1037, 1057, 1028, 1052, 1062, 1071, 1064, 1084, 1077, 1102, 1111, 1131, 1139, 1128, 1139, 1160, 1177, 1196, 1188, 1201, 1174, 1153, 1184, 1180, 1209, 1206, 1215, 1240, 1231, 1219, 1262, 1255, 1259, 1269, 1305, 1302, 1289, 1326, 1331, 1323, 1352, 1349, 1371, 1363, 1380, 1388, 1399, 1391, 1386, 1398, 1403, 1408, 1409, 1410, 1414, 1411, 1413, 1416, 1419, 1419, 1418, 1421, 1425, 1422, 1422, 1419, 1424, 1429, 1425, 1430, 1431, 1430, 1433, 1433, 1435, 1436, 1439, 1440, 1462, 1466, 1466, 1466, 1466, 1466, 1466, 1463, 1449, 1445, 1407, 1275, 1287, 1116, 1110, 1110, 1110, 1110, 1110, 1110, 1110, 1110, 1110, 1110, 1110, 1110, 1110, 1110, 1110, 1110, 1110, 1110, 1110, 1110, 1110, 1110, 1111, 1110, 1110, 1112, 1117, 1115, 1118, 1139, 1131, 1156, 1446, 1531, 1525, 1727, 1614, 1671, 1840, 1828, 1890, 1890, 1890, 1890, 1890, 1890, 1890, 1890, 1890, 1890, 1889, 1890, 1890, 1889, 1886, 1887, 1886, 1887, 1886, 1886, 1885, 1885, 1884, 1884, 1884, 1884, 1884, 1884, 1883, 1883, 1882, 1882, 1882, 1882, 1882, 1882, 1882, 1882, 1881, 1881, 1881, 1881, 1882, 1882, 1882, 1882, 1882, 1882, 1882, 1882, 1882, 1882, 1882, 1883, 1893, 1898, 1890, 1901, 1904, 1904, 1903, 1904, 1904, 1904, 1904, 1904, 1905, 1905, 1905, 1908, 1908, 1909, 1910, 1911, 1911, 1911, 1910, 1916, 1915, 1920, 1923, 1927, 1927, 1928, 1927, 1928, 1927, 1927, 1928, 1928, 1928, 1927, 1927, 1928, 1928, 1928,
       1216, 1213, 1213, 1207, 1206, 1199, 1195, 1196, 1190, 1190, 1186, 1179, 1178, 1173, 1172, 1165, 1161, 1161, 1163, 1157, 1155, 1153, 1150, 1146, 1144, 1141, 1134, 1133, 1131, 1127, 1124, 1119, 1117, 1116, 1112, 1110, 1107, 1106, 1104, 1101, 1098, 1096, 1095, 1093, 1089, 1090, 1088, 1087, 1086, 1082, 1082, 1082, 1079, 1078, 1076, 1074, 1073, 1070, 1068, 1068, 1066, 1064, 1059, 1062, 1061, 1062, 1062, 1060, 1059, 1055, 1057, 1056, 1054, 1053, 1052, 1051, 1050, 1049, 1041, 1041, 1036, 1038, 1035, 1033, 1031, 1034, 1023, 1031, 1024, 1002, 1005, 1002, 997, 990, 953, 987, 957, 970, 910, 913, 929, 932, 947, 900, 902, 852, 894, 887, 893, 791, 835, 842, 815, 759, 809, 761, 774, 802, 731, 724, 784, 695, 709, 660, 662, 684, 713, 647, 673, 638, 630, 622, 617, 609, 631, 614, 582, 630, 602, 580, 571, 603, 604, 581, 575, 587, 580, 569, 566, 566, 563, 563, 556, 555, 554, 554, 548, 545, 550, 546, 547, 544, 542, 543, 540, 540, 540, 536, 537, 534, 534, 533, 531, 531, 532, 529, 529, 527, 527, 527, 527, 526, 526, 526, 525, 524, 525, 525, 524, 524, 523, 523, 523, 523, 522, 522, 522, 523, 522, 523, 522, 522, 522, 522, 523, 523, 522, 524, 523, 524, 524, 525, 525, 526, 526, 527, 528, 529, 529, 529, 530, 533, 532, 533, 534, 536, 536, 536, 537, 539, 542, 540, 542, 543, 546, 545, 546, 546, 548, 551, 552, 554, 556, 555, 556, 556, 555, 561, 565, 565, 568, 575, 574, 572, 568, 573, 574, 577, 579, 584, 589, 587, 592, 596, 610, 602, 600, 614, 619, 620, 618, 607, 618, 634, 630, 621, 639, 639, 658, 664, 646, 648, 667, 668, 684, 692, 691, 705, 735, 730, 745, 726, 753, 743, 779, 806, 841, 818, 867, 866, 919, 895, 962, 925, 961, 958, 1008, 957, 988, 1002, 1043, 1077, 1048, 1054, 1066, 1073, 1066, 1086, 1079, 1107, 1113, 1133, 1150, 1141, 1160, 1161, 1178, 1202, 1191, 1209, 1190, 1154, 1186, 1186, 1210, 1224, 1216, 1246, 1232, 1221, 1263, 1268, 1264, 1270, 1307, 1303, 1290, 1326, 1332, 1351, 1352, 1350, 1371, 1381, 1380, 1389, 1399, 1392, 1389, 1398, 1407, 1408, 1410, 1411, 1415, 1413, 1414, 1416, 1420, 1419, 1419, 1422, 1425, 1423, 1423, 1419, 1425, 1430, 1433, 1431, 1431, 1431, 1434, 1433, 1435, 1436, 1439, 1440, 1461, 1466, 1466, 1466, 1466, 1466, 1466, 1463, 1451, 1445, 1419, 1275, 1289, 1116, 1110, 1110, 1110, 1110, 1110, 1110, 1110, 1110, 1110, 1110, 1110, 1110, 1110, 1110, 1110, 1110, 1110, 1110, 1110, 1110, 1110, 1110, 1111, 1111, 1110, 1111, 1117, 1115, 1111, 1143, 1122, 1150, 1440, 1528, 1528, 1844, 1624, 1677, 1871, 1886, 1890, 1890, 1890, 1890, 1890, 1890, 1890, 1890, 1890, 1890, 1889, 1885, 1886, 1886, 1886, 1887, 1886, 1887, 1886, 1886, 1885, 1885, 1884, 1884, 1884, 1884, 1884, 1884, 1883, 1883, 1882, 1882, 1882, 1882, 1882, 1882, 1882, 1882, 1881, 1881, 1881, 1881, 1882, 1882, 1882, 1882, 1882, 1882, 1882, 1882, 1882, 1882, 1882, 1883, 1893, 1898, 1889, 1900, 1902, 1897, 1903, 1904, 1904, 1904, 1904, 1904, 1904, 1905, 1905, 1908, 1908, 1909, 1910, 1911, 1911, 1911, 1914, 1916, 1915, 1920, 1923, 1927, 1927, 1928, 1927, 1927, 1927, 1927, 1927, 1928, 1928, 1927, 1927, 1928, 1928, 1928,
       1216, 1212, 1211, 1206, 1204, 1195, 1195, 1196, 1188, 1183, 1186, 1179, 1177, 1172, 1172, 1165, 1160, 1160, 1161, 1155, 1155, 1152, 1150, 1146, 1141, 1140, 1133, 1131, 1130, 1127, 1124, 1118, 1117, 1116, 1112, 1110, 1107, 1106, 1104, 1100, 1098, 1096, 1094, 1092, 1089, 1090, 1088, 1086, 1085, 1081, 1081, 1082, 1079, 1078, 1076, 1074, 1073, 1070, 1066, 1068, 1065, 1064, 1059, 1060, 1060, 1060, 1062, 1053, 1059, 1054, 1057, 1054, 1052, 1052, 1050, 1051, 1050, 1049, 1040, 1041, 1035, 1038, 1035, 1032, 1030, 1031, 1023, 1027, 1023, 1000, 1002, 999, 993, 975, 951, 986, 956, 965, 909, 910, 927, 924, 946, 893, 898, 841, 869, 885, 892, 790, 773, 832, 810, 741, 793, 753, 768, 796, 725, 716, 680, 682, 707, 649, 661, 683, 711, 642, 673, 637, 615, 607, 616, 602, 629, 614, 578, 574, 572, 579, 570, 603, 603, 581, 575, 585, 580, 568, 566, 566, 561, 563, 556, 553, 554, 551, 547, 541, 550, 545, 546, 544, 541, 543, 540, 540, 539, 535, 537, 534, 534, 533, 531, 531, 533, 529, 529, 527, 527, 527, 527, 526, 526, 526, 525, 524, 525, 525, 524, 524, 523, 523, 523, 523, 523, 522, 522, 523, 522, 523, 522, 522, 522, 523, 523, 523, 523, 524, 524, 524, 524, 525, 525, 526, 526, 528, 528, 529, 529, 529, 530, 533, 532, 534, 534, 536, 536, 536, 537, 539, 543, 540, 542, 543, 547, 545, 547, 548, 548, 552, 552, 554, 556, 555, 559, 556, 556, 564, 566, 569, 569, 576, 575, 573, 568, 573, 574, 578, 580, 585, 590, 589, 595, 599, 610, 603, 608, 614, 621, 622, 619, 609, 621, 638, 634, 623, 642, 642, 658, 666, 646, 652, 672, 675, 685, 695, 696, 707, 737, 733, 746, 727, 759, 780, 783, 808, 843, 870, 883, 890, 923, 916, 968, 926, 963, 963, 1010, 967, 992, 1004, 1044, 1080, 1083, 1072, 1072, 1074, 1072, 1088, 1085, 1110, 1118, 1135, 1152, 1141, 1163, 1163, 1180, 1203, 1197, 1210, 1190, 1154, 1188, 1191, 1216, 1226, 1217, 1247, 1237, 1251, 1268, 1269, 1272, 1271, 1314, 1304, 1299, 1326, 1335, 1351, 1353, 1360, 1372, 1381, 1391, 1393, 1399, 1393, 1410, 1399, 1410, 1410, 1410, 1412, 1415, 1416, 1415, 1417, 1420, 1420, 1420, 1422, 1425, 1423, 1424, 1421, 1429, 1430, 1433, 1431, 1431, 1433, 1434, 1434, 1435, 1437, 1439, 1440, 1457, 1466, 1466, 1466, 1466, 1466, 1466, 1465, 1458, 1445, 1417, 1123, 1131, 1110, 1110, 1110, 1110, 1110, 1110, 1110, 1110, 1110, 1110, 1110, 1110, 1110, 1110, 1110, 1110, 1110, 1110, 1110, 1110, 1110, 1110, 1110, 1111, 1111, 1110, 1111, 1111, 1111, 1111, 1112, 1122, 1147, 1161, 1470, 1529, 1844, 1646, 1838, 1885, 1886, 1890, 1890, 1890, 1890, 1890, 1890, 1890, 1890, 1890, 1884, 1884, 1885, 1886, 1886, 1886, 1887, 1886, 1887, 1886, 1886, 1885, 1884, 1884, 1884, 1884, 1884, 1884, 1884, 1883, 1883, 1882, 1882, 1882, 1882, 1882, 1882, 1882, 1882, 1881, 1881, 1881, 1881, 1882, 1882, 1882, 1882, 1882, 1882, 1882, 1882, 1882, 1882, 1882, 1883, 1883, 1886, 1889, 1900, 1887, 1897, 1890, 1893, 1899, 1904, 1904, 1904, 1905, 1905, 1905, 1908, 1908, 1910, 1910, 1911, 1912, 1911, 1914, 1916, 1916, 1920, 1923, 1927, 1927, 1928, 1927, 1928, 1927, 1927, 1927, 1927, 1928, 1927, 1927, 1928, 1928, 1928,
       1215, 1211, 1210, 1206, 1204, 1194, 1193, 1195, 1186, 1183, 1184, 1177, 1177, 1171, 1171, 1165, 1160, 1160, 1160, 1154, 1154, 1151, 1149, 1146, 1141, 1139, 1132, 1131, 1130, 1127, 1124, 1117, 1116, 1115, 1112, 1109, 1106, 1105, 1103, 1100, 1098, 1096, 1094, 1091, 1088, 1090, 1087, 1086, 1085, 1081, 1081, 1081, 1078, 1078, 1076, 1074, 1073, 1070, 1066, 1062, 1064, 1063, 1058, 1060, 1059, 1060, 1056, 1052, 1059, 1054, 1057, 1054, 1052, 1052, 1049, 1050, 1048, 1048, 1040, 1039, 1035, 1038, 1034, 1032, 1028, 1019, 1001, 1014, 1022, 999, 997, 997, 992, 966, 949, 984, 952, 960, 907, 907, 926, 909, 837, 891, 882, 836, 844, 881, 886, 786, 772, 831, 808, 737, 778, 749, 762, 794, 723, 714, 679, 680, 704, 648, 659, 682, 702, 640, 612, 634, 614, 605, 615, 602, 628, 614, 577, 573, 571, 578, 570, 559, 603, 578, 568, 584, 579, 568, 566, 565, 560, 557, 553, 553, 553, 551, 547, 540, 549, 545, 546, 543, 541, 543, 540, 540, 539, 535, 537, 534, 534, 533, 530, 531, 532, 529, 529, 527, 527, 527, 527, 526, 526, 526, 525, 524, 525, 525, 524, 524, 523, 523, 523, 523, 523, 522, 522, 523, 522, 523, 523, 523, 523, 523, 523, 523, 523, 524, 524, 525, 524, 526, 525, 526, 526, 528, 528, 529, 530, 530, 531, 533, 532, 534, 534, 536, 536, 536, 537, 540, 543, 540, 542, 544, 547, 546, 549, 548, 550, 555, 553, 555, 557, 556, 559, 557, 556, 565, 567, 570, 573, 577, 576, 575, 568, 574, 575, 584, 582, 586, 591, 590, 596, 600, 610, 608, 610, 615, 622, 623, 620, 611, 622, 639, 642, 630, 644, 646, 659, 668, 650, 655, 678, 704, 687, 701, 697, 711, 739, 737, 747, 738, 762, 783, 783, 809, 855, 871, 885, 893, 926, 934, 970, 934, 973, 973, 1011, 1026, 995, 1007, 1047, 1081, 1086, 1074, 1075, 1106, 1078, 1104, 1086, 1120, 1121, 1140, 1157, 1145, 1168, 1175, 1186, 1205, 1199, 1211, 1193, 1156, 1190, 1192, 1220, 1228, 1221, 1248, 1239, 1257, 1269, 1271, 1273, 1291, 1315, 1305, 1299, 1333, 1335, 1353, 1353, 1363, 1372, 1382, 1392, 1393, 1401, 1395, 1411, 1400, 1411, 1412, 1411, 1414, 1416, 1416, 1416, 1417, 1421, 1420, 1421, 1423, 1425, 1424, 1425, 1427, 1431, 1431, 1434, 1431, 1432, 1435, 1435, 1437, 1435, 1437, 1440, 1441, 1449, 1464, 1466, 1464, 1427, 1463, 1466, 1465, 1456, 1192, 1132, 1117, 1130, 1110, 1110, 1110, 1110, 1110, 1110, 1110, 1110, 1110, 1110, 1110, 1110, 1110, 1110, 1110, 1110, 1110, 1110, 1110, 1110, 1110, 1110, 1110, 1110, 1110, 1110, 1111, 1110, 1111, 1111, 1111, 1121, 1119, 1162, 1470, 1589, 1863, 1781, 1869, 1884, 1886, 1890, 1890, 1890, 1890, 1890, 1890, 1890, 1890, 1884, 1884, 1884, 1885, 1885, 1886, 1886, 1886, 1886, 1887, 1886, 1886, 1885, 1884, 1884, 1884, 1884, 1884, 1884, 1884, 1883, 1883, 1882, 1882, 1882, 1882, 1882, 1882, 1882, 1882, 1882, 1882, 1882, 1881, 1882, 1882, 1882, 1882, 1882, 1882, 1882, 1882, 1882, 1882, 1882, 1883, 1883, 1884, 1889, 1891, 1887, 1897, 1890, 1892, 1889, 1888, 1894, 1898, 1892, 1894, 1907, 1908, 1909, 1910, 1910, 1911, 1912, 1914, 1915, 1916, 1917, 1920, 1923, 1922, 1925, 1926, 1927, 1925, 1927, 1927, 1926, 1927, 1928, 1927, 1927, 1927, 1928, 1927,
       1215, 1208, 1208, 1204, 1203, 1192, 1191, 1194, 1184, 1182, 1181, 1176, 1177, 1171, 1171, 1165, 1160, 1158, 1157, 1154, 1154, 1151, 1149, 1145, 1140, 1138, 1131, 1130, 1130, 1127, 1123, 1117, 1116, 1115, 1112, 1109, 1106, 1105, 1103, 1099, 1098, 1095, 1093, 1091, 1088, 1090, 1087, 1086, 1082, 1081, 1081, 1081, 1078, 1078, 1076, 1074, 1072, 1069, 1065, 1062, 1063, 1063, 1058, 1058, 1059, 1059, 1055, 1052, 1049, 1053, 1056, 1054, 1051, 1050, 1049, 1050, 1048, 1047, 1039, 1039, 1034, 1037, 1034, 1032, 1027, 1019, 993, 1012, 1010, 996, 992, 996, 990, 963, 947, 983, 950, 917, 903, 899, 922, 900, 817, 875, 878, 833, 836, 880, 774, 785, 770, 785, 808, 732, 776, 748, 721, 793, 722, 712, 670, 679, 703, 646, 658, 682, 641, 637, 611, 633, 614, 604, 613, 602, 600, 606, 575, 573, 571, 572, 567, 559, 550, 578, 568, 584, 578, 567, 565, 564, 560, 555, 553, 552, 553, 551, 547, 540, 541, 543, 545, 543, 538, 542, 540, 540, 538, 534, 536, 533, 534, 533, 530, 531, 530, 529, 529, 527, 527, 527, 527, 526, 526, 526, 525, 524, 525, 525, 524, 524, 523, 523, 523, 523, 523, 522, 523, 523, 522, 523, 523, 523, 523, 523, 524, 523, 524, 525, 524, 525, 525, 526, 526, 527, 527, 528, 529, 530, 530, 531, 531, 533, 533, 534, 534, 536, 537, 538, 537, 540, 544, 540, 544, 545, 548, 546, 549, 550, 550, 556, 554, 556, 558, 558, 562, 565, 570, 570, 568, 570, 574, 578, 581, 585, 590, 580, 577, 584, 583, 586, 593, 593, 597, 601, 611, 608, 610, 616, 623, 624, 623, 612, 625, 640, 643, 631, 644, 648, 660, 669, 651, 656, 685, 704, 688, 708, 702, 715, 743, 738, 748, 739, 768, 791, 783, 822, 860, 881, 887, 894, 927, 939, 972, 936, 976, 991, 1013, 1030, 997, 1029, 1059, 1083, 1087, 1075, 1078, 1114, 1079, 1108, 1089, 1122, 1131, 1168, 1163, 1157, 1174, 1176, 1191, 1208, 1202, 1213, 1197, 1183, 1217, 1197, 1220, 1230, 1223, 1257, 1239, 1259, 1270, 1271, 1273, 1292, 1317, 1305, 1301, 1333, 1335, 1353, 1353, 1363, 1375, 1385, 1393, 1394, 1402, 1397, 1412, 1401, 1412, 1412, 1412, 1415, 1416, 1416, 1416, 1417, 1422, 1421, 1422, 1423, 1425, 1424, 1425, 1427, 1431, 1431, 1434, 1431, 1432, 1435, 1437, 1437, 1435, 1437, 1440, 1441, 1448, 1460, 1465, 1463, 1429, 1463, 1466, 1465, 1455, 1192, 1113, 1116, 1114, 1110, 1110, 1110, 1110, 1110, 1110, 1110, 1110, 1110, 1110, 1110, 1110, 1110, 1110, 1110, 1110, 1110, 1110, 1110, 1110, 1110, 1110, 1110, 1110, 1110, 1110, 1110, 1110, 1110, 1110, 1110, 1121, 1119, 1151, 1449, 1625, 1865, 1862, 1871, 1884, 1886, 1890, 1890, 1890, 1890, 1890, 1890, 1890, 1883, 1884, 1884, 1884, 1885, 1885, 1886, 1886, 1886, 1886, 1887, 1885, 1886, 1885, 1884, 1884, 1884, 1884, 1885, 1884, 1884, 1883, 1882, 1882, 1882, 1882, 1882, 1882, 1882, 1882, 1882, 1882, 1882, 1882, 1882, 1882, 1882, 1882, 1882, 1882, 1882, 1882, 1882, 1882, 1882, 1882, 1883, 1883, 1884, 1888, 1884, 1887, 1885, 1890, 1890, 1888, 1888, 1894, 1898, 1892, 1901, 1908, 1908, 1909, 1911, 1910, 1911, 1912, 1914, 1914, 1916, 1917, 1919, 1924, 1926, 1925, 1926, 1927, 1925, 1927, 1927, 1927, 1927, 1927, 1927, 1927, 1927, 1928, 1927,
       1214, 1207, 1204, 1202, 1199, 1191, 1190, 1194, 1182, 1180, 1181, 1175, 1176, 1169, 1171, 1164, 1159, 1158, 1155, 1151, 1153, 1150, 1146, 1143, 1140, 1138, 1131, 1126, 1130, 1126, 1123, 1117, 1115, 1115, 1111, 1109, 1106, 1105, 1103, 1099, 1098, 1095, 1092, 1091, 1088, 1089, 1087, 1084, 1081, 1080, 1079, 1081, 1078, 1077, 1076, 1074, 1071, 1069, 1065, 1062, 1063, 1062, 1058, 1057, 1058, 1059, 1054, 1052, 1049, 1049, 1055, 1054, 1051, 1050, 1047, 1050, 1048, 1047, 1039, 1038, 1033, 1036, 1029, 1031, 1027, 1018, 989, 1010, 1004, 995, 991, 995, 986, 962, 945, 948, 947, 916, 897, 898, 907, 892, 811, 859, 864, 821, 809, 878, 774, 781, 769, 738, 807, 731, 775, 744, 710, 742, 701, 711, 666, 663, 701, 645, 656, 656, 640, 636, 607, 617, 613, 603, 612, 590, 600, 598, 574, 573, 571, 572, 564, 558, 549, 555, 549, 546, 578, 567, 565, 563, 559, 555, 553, 551, 553, 550, 546, 540, 541, 542, 542, 542, 538, 539, 540, 539, 538, 534, 536, 532, 534, 532, 530, 531, 530, 528, 529, 527, 527, 527, 527, 526, 526, 526, 525, 524, 525, 525, 524, 524, 523, 523, 523, 523, 523, 522, 523, 523, 522, 523, 523, 523, 523, 523, 524, 523, 524, 525, 524, 525, 525, 526, 526, 527, 527, 528, 529, 530, 530, 532, 532, 533, 533, 535, 534, 536, 537, 538, 538, 541, 544, 541, 544, 545, 548, 547, 550, 551, 551, 556, 554, 557, 559, 558, 562, 567, 571, 571, 569, 571, 575, 579, 581, 585, 590, 580, 577, 585, 584, 589, 596, 594, 600, 604, 612, 609, 612, 620, 625, 624, 625, 628, 629, 643, 647, 656, 646, 652, 663, 670, 653, 671, 688, 705, 692, 709, 711, 730, 747, 743, 752, 773, 771, 793, 855, 830, 864, 882, 891, 903, 929, 939, 973, 944, 978, 993, 1018, 1031, 999, 1030, 1082, 1090, 1090, 1085, 1081, 1122, 1119, 1137, 1092, 1132, 1134, 1169, 1169, 1168, 1176, 1179, 1197, 1212, 1204, 1216, 1227, 1246, 1230, 1198, 1221, 1233, 1224, 1259, 1241, 1261, 1272, 1273, 1280, 1292, 1317, 1310, 1302, 1333, 1335, 1354, 1354, 1365, 1375, 1387, 1393, 1396, 1403, 1398, 1412, 1404, 1413, 1412, 1414, 1418, 1416, 1417, 1416, 1418, 1422, 1421, 1422, 1423, 1426, 1425, 1426, 1432, 1432, 1431, 1434, 1432, 1432, 1436, 1437, 1437, 1437, 1438, 1440, 1441, 1444, 1457, 1464, 1463, 1463, 1463, 1460, 1459, 1317, 1117, 1113, 1113, 1114, 1110, 1110, 1110, 1110, 1110, 1110, 1110, 1110, 1110, 1110, 1110, 1110, 1110, 1110, 1110, 1110, 1110, 1110, 1110, 1110, 1110, 1110, 1110, 1110, 1110, 1110, 1110, 1110, 1110, 1110, 1110, 1121, 1120, 1151, 1316, 1879, 1865, 1863, 1871, 1884, 1885, 1890, 1890, 1890, 1890, 1890, 1890, 1883, 1883, 1884, 1884, 1884, 1885, 1884, 1884, 1886, 1885, 1886, 1887, 1885, 1886, 1885, 1884, 1884, 1884, 1884, 1884, 1884, 1883, 1883, 1882, 1882, 1882, 1882, 1882, 1882, 1882, 1882, 1882, 1882, 1882, 1882, 1882, 1882, 1882, 1882, 1882, 1882, 1882, 1882, 1882, 1882, 1883, 1882, 1883, 1883, 1884, 1888, 1883, 1886, 1885, 1888, 1885, 1887, 1888, 1892, 1898, 1892, 1901, 1906, 1908, 1909, 1907, 1905, 1911, 1905, 1912, 1914, 1916, 1917, 1919, 1924, 1926, 1926, 1926, 1927, 1925, 1927, 1927, 1927, 1927, 1927, 1927, 1927, 1927, 1928, 1927 ]
